0.115509 0.117758 0.119866 0.121603 0.123358 0.124816 0.125802 0.126729 0.128068 0.128954 0.128947 0.129509 0.129924 0.129897 0.129487 0.12925 0.129092 0.128877 0.128674 0.128149 0.126889 0.126229 0.125165 0.123645 0.121983 0.120045 0.118442 0.117209 0.11595 0.114962 0.114542 0.113917 0.113136 0.113028 0.11303 0.113283 0.113464 0.112719 0.111735 0.111223 0.10996 0.107622 0.105972 0.105056 0.103351 0.101753 0.100564 0.0994163 0.0974133 0.095106 0.0926749 0.0906137 0.0891735 0.0882719 0.0866295 0.0847611 0.0823491 0.0794089 0.0760131 0.0715906 0.0666538 0.0625108 0.0591856 0.055917 0.0530998 0.0510599 0.0498333 0.0500475 0.0511239 0.0533809 0.0563914 0.0599264 0.062954 0.0654908 0.0672782 0.0680389 0.068297 0.0687036 0.0697864 0.0708182 0.0716131 0.0727019 0.0736628 0.0740704 0.0747478 0.0756734 0.0770168 0.0788858 0.0813966 0.084228 0.0871081 0.0898014 0.0918809 0.0933005 0.0944998 0.0955561 0.0968598 0.0983694 0.0999149 0.101211 0.102204 0.103449 0.104468 0.105076 0.104878 0.104182 0.103156 0.102188 0.101127 0.100039 0.0984757 0.0958133 0.0926461 0.0890317 0.0851792 0.0816348 0.0785018 0.0747301 0.070849 0.0674193 0.0639677 0.0603939 0.057262 0.0547587 0.0529949 0.05253 0.0536711 0.0554283 0.0571949 0.0590651 0.0613657 0.0635927 0.0653787 0.0666023 0.0669831 0.0665992 0.0656754 0.064955 0.0643379 0.0636425 0.0627895 0.0618348 0.0607784 0.0596713 0.058477 0.0573805 0.0567541 0.0561094 0.0548265 0.0532713 0.0524016 0.0523878 0.0524274 0.0523126 0.0525246 0.0529423 0.0530697 0.053874 0.05573 0.057261 0.0576469 0.0572134 0.0565036 0.0554571 0.0544611 0.0532689 0.052177 0.0512748 0.0501301 0.0490559 0.0484633 0.0483515 0.0483904 0.048601 0.0489786 0.0495453 0.0502 0.0506027 0.050618 0.0497323 0.0481988 0.0467871 0.0456261 0.0445511 0.0435178 0.0432305 0.0440254 0.0453573 0.0463444 0.047256 0.0524415 0.0579236 0.0624152 0.0667289 0.0711901 0.0751847 0.0787479 0.0821113 0.0852717 0.0878536 0.0900935 0.0929151 0.0956478 0.0977678 0.100236 0.102664 0.104812 0.106884 0.108883 0.11084 0.11243 0.113143 0.113407 0.113428 0.113259 0.11289 0.112329 0.111119 0.10886 0.105651 0.101507 0.0975128 0.0959701 0.0925897 0.0885244 0.0843474 0.0798942 0.0756757 0.0721647 0.0691144 0.0665046 0.0645835 0.0632554 0.0622753 0.0612574 0.0601965 0.0588606 0.0573145 0.0558304 0.0550897 0.0548007 0.05405 0.0523943 0.0505902 0.0493115 0.0482674 0.0473539 0.0467285 0.0463112 0.0457805 0.0451036 0.0445612 0.0439819 0.0434897 0.0432079 0.0432527 0.0433355 0.0432382 0.043451 0.0438987 0.0443583 0.044877 0.0452836 0.045361 0.0452567 0.0450473 0.0447048 0.0440285 0.0433902 0.0432214 0.0427232 0.0422481 0.0414878 0.0403392 0.0395005 0.0391499 0.0389136 0.0385974 0.0382906 0.037914 0.037362 0.0367043 0.0360078 0.0351754 0.0340106 0.0325318 0.0310426 0.0295194 0.0279706 0.0266352 0.0255726 0.0246794 0.0239543 0.023371 0.0227406 0.0220571 0.0212346 0.0200061 0.0184474 0.0168385 0.0155764 0.0149009 0.0144909 0.0140775 0.0133748 0.0126005 0.0120465 0.0116763 0.0114476 0.0112769 0.0111222 0.0110247 0.0109594 0.0109072 0.0108898
0.120113 0.122173 0.12411 0.125735 0.12751 0.129042 0.130061 0.130962 0.13218 0.132884 0.132619 0.13303 0.133332 0.133124 0.132481 0.132139 0.131871 0.131533 0.131229 0.130641 0.129293 0.128677 0.127689 0.126197 0.124514 0.122515 0.120776 0.119401 0.11805 0.116975 0.116425 0.115654 0.114722 0.114495 0.114385 0.114598 0.114724 0.113869 0.112784 0.112289 0.111008 0.108612 0.106978 0.106082 0.104341 0.102614 0.101323 0.100189 0.0981514 0.0958702 0.0934517 0.0913199 0.089796 0.0888336 0.0871626 0.0853671 0.0830714 0.0801805 0.0767959 0.0725294 0.0678274 0.0637987 0.0605207 0.057213 0.0543597 0.0522477 0.0509269 0.0510554 0.0520074 0.054149 0.0570692 0.0605292 0.0634226 0.0659006 0.0676515 0.0682312 0.0682691 0.0684947 0.069498 0.0704605 0.071252 0.0723374 0.0733539 0.073886 0.0744065 0.0752896 0.0766863 0.0786744 0.0811997 0.0840351 0.0869388 0.0896207 0.0917161 0.0932251 0.0945528 0.0957443 0.0970773 0.0986288 0.100283 0.101663 0.102733 0.104005 0.105044 0.105666 0.105493 0.10488 0.104051 0.103314 0.10254 0.101739 0.100364 0.097832 0.0948515 0.0915049 0.0879774 0.0846554 0.0816198 0.0780034 0.0740839 0.0704439 0.0666463 0.062768 0.0593002 0.0564278 0.0543306 0.0535 0.0542074 0.0555357 0.057021 0.0588037 0.0611307 0.0635065 0.0654808 0.0670181 0.0678025 0.0678586 0.067294 0.0668073 0.0663568 0.0657839 0.0650362 0.0641954 0.0632533 0.0623236 0.0613107 0.0603337 0.0597574 0.0591566 0.0578929 0.0563111 0.0553566 0.0551666 0.0550126 0.0547264 0.0547301 0.0549463 0.0549173 0.0554489 0.0569662 0.0582913 0.0585779 0.0579905 0.0570201 0.0557059 0.0544598 0.0532917 0.052197 0.0511818 0.0498913 0.0487178 0.0480971 0.0479897 0.0480179 0.0482212 0.0485763 0.0491227 0.0497385 0.0501147 0.0501754 0.0493018 0.0478008 0.0464915 0.0454594 0.0445657 0.0438002 0.0437609 0.044794 0.0463768 0.0475386 0.048437 0.0532181 0.058428 0.062775 0.0670025 0.0713268 0.0751908 0.0786971 0.0819946 0.0850687 0.0875901 0.0898186 0.092621 0.0952994 0.0973585 0.0997939 0.102213 0.104435 0.106666 0.108758 0.110817 0.112649 0.113599 0.114154 0.114467 0.114563 0.114431 0.114086 0.113126 0.111127 0.108191 0.104323 0.100622 0.0990363 0.0955722 0.091384 0.0870656 0.0825251 0.0782579 0.0747166 0.0715943 0.0688619 0.0668003 0.0653366 0.0641811 0.0629664 0.0617658 0.0603475 0.0587161 0.0571326 0.0563016 0.0559478 0.0552265 0.0536108 0.0518693 0.0506421 0.0496228 0.048704 0.0480591 0.0476549 0.0471557 0.0464963 0.0460405 0.0455881 0.0451997 0.0449858 0.045081 0.0452083 0.0450854 0.0452673 0.0456894 0.0460808 0.0464831 0.0467548 0.0467113 0.0464955 0.0461419 0.0457052 0.0449941 0.044341 0.0441615 0.0436702 0.0432012 0.0423963 0.0411691 0.0402348 0.0398272 0.0395124 0.0391043 0.0387159 0.0383142 0.0377799 0.0371324 0.0364389 0.0356117 0.0344435 0.0329422 0.0314164 0.0298757 0.0283304 0.0270009 0.0259332 0.0250328 0.0243056 0.0237188 0.0230814 0.0223851 0.0215363 0.0202646 0.0186695 0.0170026 0.0156704 0.0149299 0.0144675 0.0140083 0.0132381 0.0123636 0.0117078 0.0112571 0.0109872 0.0107864 0.0106282 0.0105232 0.0104693 0.0104521 0.010475
0.123759 0.125672 0.127478 0.128955 0.130623 0.132096 0.133017 0.133809 0.134932 0.13552 0.135102 0.135354 0.135554 0.135162 0.134338 0.133989 0.13371 0.133395 0.13313 0.132712 0.131475 0.13081 0.129895 0.128482 0.126861 0.124873 0.123105 0.12156 0.120079 0.118972 0.118391 0.11748 0.116458 0.116127 0.11583 0.115907 0.11591 0.11491 0.113664 0.11311 0.111908 0.109456 0.107834 0.106973 0.105223 0.103423 0.102129 0.10101 0.0989171 0.0966533 0.0942286 0.092043 0.0904431 0.0893888 0.0875942 0.0857525 0.0835152 0.0806989 0.0773593 0.0731755 0.0687292 0.0649653 0.0617859 0.0584049 0.0555645 0.0534109 0.0519516 0.0519974 0.0527862 0.0547622 0.0576457 0.0610907 0.0638459 0.0661276 0.0678407 0.0682914 0.0681981 0.0682287 0.0690386 0.0698613 0.0706035 0.0717184 0.0728369 0.0735598 0.0739991 0.0747562 0.0761672 0.0782573 0.0808712 0.083673 0.0865146 0.0891885 0.091295 0.0928729 0.0943491 0.0957782 0.0973616 0.0990091 0.100742 0.102177 0.103331 0.104675 0.105798 0.106474 0.106346 0.105804 0.10507 0.104492 0.103898 0.103329 0.102305 0.100134 0.0973989 0.0943365 0.0911014 0.0879509 0.0849596 0.0815287 0.0776508 0.0738634 0.0697958 0.0655804 0.0618529 0.0587551 0.0563527 0.0551879 0.0555202 0.0563673 0.0573052 0.0586327 0.0607163 0.0630629 0.0652199 0.0668783 0.0679082 0.0682142 0.0678173 0.0674308 0.0670971 0.066652 0.0660384 0.0653001 0.0644121 0.0635344 0.0626332 0.0618662 0.0614544 0.0609913 0.0598574 0.0583535 0.0574156 0.0571436 0.0568946 0.0565109 0.0563982 0.0564924 0.0563117 0.0565317 0.0576764 0.0587126 0.0589072 0.0583187 0.0572674 0.055702 0.0541501 0.0528188 0.0517671 0.0507729 0.049554 0.0484756 0.0479636 0.0479549 0.0480371 0.0482402 0.0486116 0.0491749 0.0497745 0.0501151 0.0502016 0.0493209 0.0478296 0.0466115 0.0456834 0.0449084 0.0443973 0.0445819 0.045761 0.0474857 0.0487626 0.0496684 0.0540473 0.0589473 0.0631301 0.0673024 0.0715728 0.0753137 0.0787871 0.082035 0.0849946 0.0874981 0.0897634 0.0925652 0.0951664 0.0971364 0.0995123 0.101944 0.104263 0.106649 0.108893 0.111051 0.113036 0.114169 0.114979 0.115563 0.115886 0.115973 0.11583 0.115117 0.113418 0.110841 0.107285 0.103851 0.102187 0.0986818 0.0944301 0.0899967 0.0853764 0.0810668 0.0774629 0.0742328 0.0713687 0.069153 0.0675145 0.0661619 0.064725 0.0633677 0.0618261 0.0600555 0.0583464 0.0574138 0.0570013 0.0562572 0.0546889 0.0531143 0.052028 0.0510914 0.0502503 0.0496474 0.0492395 0.0487392 0.0480545 0.0476335 0.0472825 0.0470087 0.0468941 0.047057 0.0472109 0.0470185 0.0471616 0.0475518 0.0478688 0.0481538 0.048296 0.048114 0.0477603 0.0472593 0.0466893 0.0459046 0.0452063 0.0449878 0.0444835 0.0439845 0.0431263 0.0418527 0.0408781 0.0404464 0.0400502 0.0395436 0.0390689 0.0385798 0.0380131 0.0373793 0.0367149 0.035939 0.0348293 0.0333528 0.0317949 0.0301986 0.0286431 0.0273196 0.0262567 0.0253597 0.0246288 0.0240291 0.0233776 0.022673 0.0218221 0.0205336 0.0189041 0.0171984 0.0158151 0.015018 0.0145086 0.0140076 0.0131798 0.0122044 0.0114276 0.0108712 0.0105292 0.0102866 0.0101205 0.0100165 0.0099837 0.0100039 0.0100717
0.126237 0.127817 0.129268 0.130451 0.131753 0.132915 0.133523 0.133986 0.134808 0.135203 0.134723 0.134916 0.135039 0.134562 0.133659 0.133327 0.133173 0.13311 0.133179 0.133048 0.132105 0.131671 0.130889 0.12951 0.127877 0.125911 0.124222 0.122641 0.121034 0.119758 0.119143 0.118326 0.117284 0.116801 0.116433 0.116467 0.116455 0.115508 0.114327 0.113808 0.112697 0.110344 0.108728 0.107851 0.106057 0.10427 0.103029 0.101909 0.0998117 0.0975667 0.0950734 0.0927647 0.0910754 0.0899172 0.0879794 0.0860335 0.0837926 0.0810336 0.0777589 0.0736582 0.0693791 0.0658692 0.0629328 0.0595777 0.0566201 0.0543546 0.0527887 0.0527482 0.0534118 0.0552011 0.05794 0.0612754 0.0638689 0.0659139 0.0675007 0.0679104 0.0677353 0.0675969 0.0681695 0.0687829 0.0694439 0.0706047 0.0718521 0.0727299 0.0732687 0.0738865 0.0752651 0.0774245 0.0801246 0.0829378 0.0856972 0.0883291 0.0903984 0.0919817 0.0935097 0.0950486 0.0967964 0.0985736 0.100382 0.101903 0.103208 0.10469 0.105915 0.106684 0.106644 0.106199 0.105592 0.105155 0.1047 0.1043 0.10366 0.102 0.0997164 0.0970255 0.0941325 0.0911909 0.0882935 0.0849552 0.081249 0.0774442 0.073225 0.068718 0.064688 0.0613881 0.0587639 0.0573441 0.0574193 0.0580021 0.0585877 0.0594916 0.0612406 0.0633401 0.0654122 0.0670172 0.0679452 0.0682867 0.0680575 0.067824 0.0676242 0.0672823 0.0667433 0.0661471 0.0653754 0.0645331 0.063641 0.0629655 0.0627174 0.0624125 0.061476 0.0601555 0.0594041 0.0591821 0.0589162 0.0585629 0.0584395 0.0585004 0.0582382 0.0583075 0.0592264 0.0600279 0.060114 0.0595383 0.0585749 0.0569621 0.0552499 0.0536716 0.0524674 0.051483 0.050265 0.0491061 0.0484859 0.0484062 0.0484465 0.0486388 0.0489809 0.0495748 0.050223 0.0506196 0.0508032 0.049974 0.0484854 0.047318 0.046491 0.0457207 0.0453513 0.0457374 0.0469956 0.0487293 0.0500092 0.0508841 0.0547988 0.0593515 0.0633638 0.0674288 0.0716671 0.0753257 0.0787193 0.0819313 0.0848377 0.0873106 0.089618 0.0925029 0.0950889 0.0969587 0.0992444 0.101696 0.104151 0.106716 0.109101 0.111407 0.113522 0.11473 0.115617 0.116358 0.116875 0.117185 0.1173 0.116895 0.115528 0.113363 0.110216 0.107061 0.105312 0.101784 0.0974975 0.092982 0.088332 0.0839874 0.0802847 0.0768862 0.0738676 0.0715046 0.0696694 0.0681026 0.0664127 0.0648785 0.0632104 0.0613052 0.0594332 0.0583219 0.0577952 0.0570458 0.0555415 0.0541249 0.0532348 0.0525147 0.0518649 0.0514065 0.0510577 0.0505321 0.0497949 0.049349 0.0490235 0.0487787 0.0487276 0.0489787 0.0491706 0.0489054 0.0489716 0.0492813 0.0495162 0.0497199 0.0497615 0.0494275 0.0489058 0.0482752 0.0475844 0.0466784 0.0458996 0.0456379 0.0450947 0.0445221 0.0435978 0.0423109 0.0413352 0.0408783 0.0404446 0.0398997 0.03936 0.0387744 0.0380997 0.0373783 0.0366799 0.035921 0.0348881 0.0335026 0.0320214 0.0304274 0.0288532 0.0275329 0.0264821 0.0256119 0.0249045 0.0243026 0.0236359 0.0229346 0.0221174 0.0208611 0.0192435 0.017532 0.0161163 0.0152521 0.0146754 0.014128 0.0132511 0.0121894 0.0112909 0.0106195 0.0101816 0.00987253 0.00967266 0.0095478 0.00952326 0.00957306 0.0096744
0.126516 0.127863 0.12899 0.12999 0.131176 0.132277 0.132851 0.133199 0.133892 0.134162 0.133551 0.133681 0.133894 0.133651 0.132977 0.132839 0.132877 0.133029 0.133372 0.133537 0.132904 0.132887 0.132508 0.131494 0.130172 0.128271 0.12651 0.124983 0.123391 0.122021 0.121215 0.120481 0.1197 0.119188 0.118747 0.118715 0.118627 0.117694 0.116472 0.115773 0.114475 0.112031 0.110235 0.109424 0.107684 0.105915 0.104648 0.103464 0.101322 0.0990917 0.0966364 0.0942779 0.0924164 0.0910665 0.0889037 0.0867923 0.0844713 0.0817289 0.0785042 0.074505 0.07039 0.0670742 0.0643349 0.061184 0.0582532 0.0557228 0.0539635 0.0537948 0.0543177 0.0558951 0.0583961 0.0615349 0.0640169 0.0658643 0.0672042 0.0675782 0.067319 0.0669946 0.0672977 0.0676862 0.0682463 0.0694467 0.070776 0.0716911 0.0723146 0.0730971 0.0744278 0.0766851 0.0794358 0.0822796 0.0849663 0.0875434 0.0895638 0.0910995 0.0925905 0.0941135 0.0958596 0.0977064 0.0995338 0.101121 0.1025 0.104028 0.105309 0.106122 0.106121 0.105738 0.105253 0.105005 0.104715 0.104428 0.104134 0.103012 0.101251 0.0989712 0.0964196 0.0937605 0.0911069 0.0880132 0.0844592 0.0808377 0.0765978 0.07195 0.0677212 0.0643282 0.0616037 0.0600637 0.060054 0.0606156 0.0611914 0.0620146 0.0635804 0.0655095 0.0673004 0.0687368 0.0696236 0.0700772 0.0700511 0.0700229 0.0700092 0.0698871 0.0695282 0.0690058 0.0683026 0.0674929 0.0666004 0.0659563 0.0657745 0.0655606 0.0647477 0.0635179 0.0629095 0.0628639 0.0626938 0.062416 0.0623251 0.0623372 0.0619496 0.0618807 0.0625489 0.0630725 0.0629561 0.062283 0.0613138 0.0597794 0.0581045 0.0565103 0.0551301 0.053993 0.0525548 0.0511046 0.0501987 0.0498773 0.0496628 0.0496341 0.049942 0.0505538 0.0512878 0.051781 0.0520905 0.0513835 0.0499482 0.0488246 0.0481369 0.0473637 0.0468995 0.0473033 0.0485415 0.050106 0.0511976 0.0518731 0.0552237 0.0593929 0.063218 0.0671444 0.0713409 0.0750047 0.0783087 0.0814683 0.084363 0.0868137 0.0891206 0.0920706 0.0946914 0.0964851 0.0986298 0.101033 0.103586 0.106307 0.108884 0.111393 0.113745 0.115167 0.116223 0.117134 0.117826 0.118362 0.11876 0.118735 0.117777 0.116049 0.113387 0.11055 0.108773 0.105272 0.100984 0.096397 0.0916923 0.0872857 0.0834857 0.0799318 0.0767368 0.0742225 0.0722285 0.070475 0.068539 0.0668029 0.0649976 0.0629942 0.0609791 0.0596205 0.0589048 0.0581715 0.056748 0.0554161 0.0545812 0.0539012 0.0533001 0.0529248 0.0526132 0.0520587 0.0512631 0.0507841 0.0504432 0.050184 0.0500753 0.0503054 0.0505093 0.0502038 0.0501957 0.050417 0.0505541 0.0506713 0.0506085 0.0501308 0.0494645 0.0487229 0.0479467 0.0469489 0.0460694 0.0457555 0.0451698 0.0445285 0.0435736 0.042278 0.0412604 0.0407283 0.0402144 0.0396269 0.0390684 0.0384624 0.037758 0.0369694 0.0362064 0.0354277 0.0344317 0.0331343 0.031758 0.0302924 0.0288049 0.0275241 0.0264903 0.025648 0.0249783 0.0244066 0.0237485 0.0230559 0.022275 0.0210595 0.0194853 0.0178121 0.0164012 0.0154873 0.0148211 0.0142021 0.0132707 0.0121262 0.0111183 0.0103414 0.00982244 0.00945984 0.00922191 0.00905663 0.00901644 0.00907459 0.00919631
0.127461 0.128917 0.13018 0.131107 0.132228 0.133193 0.133629 0.133848 0.134352 0.134453 0.133722 0.133801 0.134257 0.134393 0.13408 0.134281 0.134596 0.134979 0.135552 0.135876 0.135453 0.135819 0.13588 0.135229 0.134184 0.132497 0.130634 0.128831 0.127079 0.125441 0.124384 0.123402 0.122485 0.121927 0.121252 0.120948 0.120772 0.119875 0.118771 0.118055 0.116681 0.114252 0.112293 0.111449 0.109749 0.10792 0.106575 0.105392 0.103303 0.101108 0.0987576 0.0964852 0.0945607 0.0930065 0.0905126 0.0881046 0.0856272 0.0828764 0.0796907 0.0757823 0.071863 0.0687573 0.0661942 0.063196 0.060452 0.0578887 0.0557768 0.0553776 0.0557265 0.0570192 0.0592123 0.0620757 0.0644716 0.0662343 0.067311 0.0676103 0.0672419 0.0667689 0.0668041 0.066969 0.0674372 0.0685679 0.0698731 0.0707677 0.0713593 0.0723244 0.073844 0.0762099 0.0790279 0.0818913 0.0845239 0.0870084 0.0889728 0.0904405 0.0918383 0.0933166 0.0950885 0.0969609 0.0987423 0.100411 0.101853 0.103305 0.104504 0.105243 0.105229 0.104835 0.104388 0.104297 0.104211 0.104064 0.103975 0.103345 0.102126 0.100242 0.0980024 0.0956369 0.0932668 0.0905121 0.087294 0.0839892 0.0800199 0.0754381 0.071116 0.0676971 0.064964 0.0633067 0.0631606 0.0636545 0.064165 0.0649224 0.0664104 0.0682853 0.0698853 0.0710979 0.0720481 0.0727659 0.0729805 0.0730962 0.0732037 0.0732164 0.0729899 0.0726008 0.0719579 0.071155 0.0702315 0.0695469 0.069399 0.0692362 0.0684592 0.0672253 0.0664703 0.0663335 0.0661194 0.0658239 0.06572 0.0656741 0.065234 0.065075 0.0655244 0.065794 0.0655208 0.0648121 0.0638205 0.062307 0.0607677 0.0592551 0.057934 0.056664 0.0549936 0.0532891 0.0521209 0.0515412 0.0510939 0.0508256 0.0509354 0.0514707 0.0521955 0.0527715 0.0532086 0.0526117 0.0512933 0.0502481 0.0497405 0.0492294 0.0487981 0.049127 0.0502836 0.0515835 0.0523456 0.0526365 0.0553123 0.0590164 0.0625956 0.066359 0.070443 0.0741065 0.0774434 0.0805741 0.083453 0.085887 0.0881739 0.0911556 0.093817 0.0955902 0.0976469 0.0999503 0.102517 0.105299 0.108002 0.110774 0.113407 0.115104 0.11644 0.117683 0.118666 0.119415 0.120114 0.1205 0.120044 0.118794 0.116646 0.114164 0.112442 0.109078 0.104869 0.100271 0.0954866 0.0909939 0.0870808 0.0833868 0.0799838 0.077277 0.0751417 0.0732604 0.0711383 0.0692182 0.0672799 0.0651737 0.0630254 0.0614739 0.0606319 0.0598918 0.0585164 0.0572138 0.0563745 0.0556657 0.0549846 0.0545899 0.054355 0.0537743 0.0529219 0.0523994 0.0519999 0.0516974 0.0515317 0.0516406 0.051739 0.0513458 0.0512602 0.0514009 0.0514118 0.051389 0.0511706 0.0505624 0.0498232 0.0490275 0.0481929 0.0471341 0.046178 0.0457964 0.0451479 0.0444645 0.0434992 0.0421621 0.0410731 0.0404579 0.0398496 0.0391651 0.0385242 0.0378738 0.0371466 0.0363289 0.0355385 0.0347503 0.0337767 0.0325611 0.0312727 0.0298947 0.0285291 0.0273623 0.0263998 0.0255925 0.0249501 0.0244109 0.0237884 0.0231242 0.0223741 0.0211849 0.0196365 0.0179924 0.016602 0.0156793 0.0149532 0.0142611 0.0132697 0.0120429 0.0109216 0.0100371 0.00943859 0.00903667 0.00875616 0.00854803 0.00849035 0.00853892 0.00867198
0.129197 0.130886 0.132458 0.133518 0.134559 0.135352 0.135641 0.135751 0.136111 0.135967 0.134882 0.134758 0.135272 0.135671 0.135647 0.136231 0.136897 0.137536 0.138293 0.138844 0.138529 0.139111 0.139523 0.139075 0.138055 0.136401 0.134663 0.13282 0.13078 0.128873 0.12755 0.126365 0.125132 0.124357 0.123395 0.122741 0.12237 0.121493 0.120512 0.119893 0.118598 0.116236 0.114332 0.113476 0.111703 0.109911 0.108553 0.10737 0.105295 0.103192 0.100942 0.0987916 0.0968283 0.0951483 0.0924513 0.0896203 0.0868557 0.084043 0.0808961 0.077037 0.0732807 0.0704173 0.0680504 0.065228 0.0625891 0.0601934 0.0579677 0.0572869 0.0574691 0.0585207 0.0604124 0.0630063 0.0652025 0.066835 0.0676873 0.0677431 0.0673495 0.0668633 0.0666267 0.0664974 0.0669028 0.0680065 0.0691881 0.0700039 0.0705446 0.0715772 0.0733574 0.075881 0.0788501 0.0817594 0.0844154 0.086839 0.0887223 0.0900905 0.091365 0.0927544 0.0945611 0.0964121 0.0981097 0.0998134 0.101269 0.102669 0.103828 0.104524 0.104411 0.10394 0.103434 0.103388 0.103469 0.103463 0.103516 0.103195 0.102413 0.100894 0.098984 0.0969299 0.0948554 0.0924235 0.0895429 0.0865231 0.082941 0.0786002 0.0742852 0.0707513 0.0679694 0.0662395 0.0658553 0.066145 0.0664747 0.066981 0.0683258 0.0700663 0.07144 0.0726244 0.0736926 0.0746173 0.0750915 0.0754482 0.0756984 0.0758186 0.0756743 0.0753588 0.0748505 0.0742031 0.0734346 0.0728499 0.0728186 0.0728389 0.0721607 0.0710267 0.0703463 0.0701935 0.0699589 0.0696959 0.0695277 0.0694935 0.0691573 0.0690566 0.0693964 0.0695305 0.0691669 0.0684696 0.0675275 0.0660832 0.0646975 0.0633703 0.0620336 0.060661 0.0588802 0.0569966 0.0556045 0.0547735 0.0541021 0.053632 0.0535296 0.0538536 0.0543558 0.0547455 0.055127 0.0544894 0.0530651 0.0519503 0.0513283 0.0507676 0.0503527 0.0506012 0.0516055 0.0527721 0.0531707 0.0530338 0.0549058 0.0580133 0.0612377 0.0648081 0.0687424 0.072319 0.0756569 0.0788357 0.0816885 0.0841389 0.0864324 0.0894252 0.0921479 0.0939575 0.0960303 0.09828 0.100822 0.103618 0.106337 0.109262 0.112191 0.114195 0.115818 0.117426 0.118899 0.119991 0.121004 0.121771 0.121807 0.121095 0.119492 0.117476 0.115849 0.112734 0.108703 0.104152 0.0993192 0.0947609 0.0907418 0.0869054 0.0832952 0.0803628 0.07803 0.0760141 0.0737619 0.0717091 0.0696724 0.0674583 0.0652 0.0635628 0.0626767 0.0619266 0.0605794 0.0593095 0.0584915 0.0577941 0.0570644 0.0565223 0.0563656 0.0559163 0.0550929 0.0545247 0.054045 0.0536426 0.0533931 0.0533875 0.0533274 0.0528039 0.0525998 0.0526275 0.0524936 0.0522971 0.0518814 0.0511002 0.050249 0.0493844 0.0484855 0.0473373 0.0462935 0.0458412 0.0451238 0.0443814 0.0433328 0.0419283 0.0407794 0.0400876 0.0393981 0.0386212 0.0378775 0.0371496 0.0363626 0.035476 0.0346213 0.0338001 0.0328529 0.0317172 0.0305258 0.0292158 0.0279234 0.0268473 0.0259715 0.0252431 0.0246564 0.0241682 0.0236086 0.023013 0.0223317 0.0212022 0.0196981 0.0180908 0.016739 0.0158482 0.0151219 0.0144079 0.013394 0.012113 0.0108862 0.00988052 0.00918491 0.00873051 0.00838991 0.00811357 0.00804952 0.00810988 0.00827438
0.130175 0.132106 0.133978 0.135219 0.136284 0.137048 0.137306 0.137407 0.137814 0.137633 0.136275 0.135848 0.136161 0.136677 0.136835 0.137657 0.13863 0.139514 0.140412 0.14116 0.141117 0.141507 0.141972 0.141737 0.140874 0.139334 0.137699 0.13602 0.134097 0.13215 0.130683 0.129271 0.127753 0.126641 0.125406 0.124406 0.123767 0.122837 0.121875 0.121322 0.120111 0.117754 0.11588 0.115142 0.113426 0.111571 0.110174 0.109009 0.106987 0.104987 0.102831 0.100772 0.0988473 0.0969316 0.0942152 0.0910886 0.0879474 0.0849745 0.0818401 0.0779831 0.0742641 0.071574 0.0694055 0.0668117 0.0643021 0.0620527 0.0600126 0.0592516 0.0592886 0.0602099 0.0618863 0.0642481 0.0661688 0.0675639 0.0681978 0.0679933 0.0674531 0.0669205 0.0666263 0.0662912 0.0665568 0.0675743 0.0685903 0.069289 0.0697979 0.0708789 0.0727937 0.0755258 0.078629 0.0815896 0.0842435 0.0866302 0.0883894 0.0896519 0.0908597 0.0922412 0.0940798 0.0958798 0.0975418 0.0992752 0.100734 0.102083 0.103139 0.103807 0.103688 0.103174 0.102557 0.102399 0.102514 0.102592 0.102799 0.102698 0.102186 0.100902 0.0992169 0.0974355 0.0956402 0.0934948 0.0908867 0.0881005 0.0847119 0.0806659 0.0765281 0.0729496 0.0700229 0.068232 0.0675955 0.0675173 0.067544 0.0677349 0.0688994 0.0704607 0.0716025 0.0727667 0.0740665 0.0752813 0.0759905 0.0765313 0.0769455 0.0772125 0.0772114 0.0769634 0.076506 0.0759009 0.0752218 0.0747896 0.0749272 0.0751737 0.074755 0.0738243 0.0733037 0.0732793 0.0732509 0.0733094 0.0734553 0.0734913 0.0733114 0.0733824 0.0737362 0.0738403 0.0734321 0.072743 0.0718653 0.0704987 0.0692181 0.0680222 0.066607 0.0650254 0.0631316 0.0611664 0.0596315 0.0586388 0.0577847 0.0571447 0.0568934 0.0570917 0.057475 0.0577487 0.0579973 0.0572281 0.055639 0.0542884 0.053389 0.0525694 0.0519885 0.0520137 0.0526097 0.0533924 0.0536078 0.0531198 0.0542092 0.0565925 0.0593519 0.0626495 0.0664162 0.0699001 0.073179 0.0763642 0.0792004 0.0816838 0.0840189 0.0870442 0.0898505 0.091724 0.0938624 0.0961647 0.0987201 0.101522 0.10423 0.107197 0.110291 0.112618 0.114642 0.11663 0.118566 0.120196 0.121602 0.122674 0.122993 0.122734 0.121686 0.120195 0.118792 0.11594 0.112153 0.107683 0.102822 0.0982005 0.0941039 0.0901855 0.0864516 0.0833502 0.0808048 0.0786038 0.076222 0.0740657 0.0719807 0.0696919 0.0673912 0.0657504 0.064817 0.0640517 0.0627179 0.0614678 0.0606664 0.0599754 0.0592338 0.058547 0.0582062 0.0577991 0.057101 0.0566093 0.0561105 0.0556335 0.0552902 0.0551753 0.0549918 0.0543723 0.0541114 0.0540538 0.0538167 0.05346 0.0528186 0.0517991 0.0507486 0.0497217 0.0486909 0.0473723 0.0461463 0.0455745 0.044789 0.0439352 0.0427124 0.0412084 0.0399892 0.0392342 0.0384948 0.0376482 0.0368157 0.0360069 0.0351501 0.0342056 0.0332989 0.0324361 0.0314966 0.0304554 0.029381 0.0281503 0.0269147 0.0258938 0.0250724 0.0244103 0.0239177 0.0235338 0.0230911 0.0226171 0.0220616 0.0210498 0.0196394 0.018101 0.0168171 0.0159903 0.0152993 0.0145832 0.013583 0.0123038 0.0110339 0.00995757 0.00917163 0.00862659 0.00821174 0.00786014 0.00779659 0.00786962 0.00803346
0.130687 0.132754 0.134751 0.136082 0.137139 0.137772 0.137864 0.137941 0.138403 0.13823 0.136907 0.13646 0.136671 0.137334 0.137828 0.138786 0.140011 0.141173 0.142234 0.143044 0.142994 0.143183 0.143459 0.143432 0.142793 0.141446 0.139873 0.138291 0.136484 0.134501 0.13294 0.131423 0.129656 0.128189 0.12666 0.125329 0.124375 0.123342 0.122414 0.121898 0.120647 0.118159 0.116199 0.115468 0.113784 0.112085 0.110774 0.109542 0.107678 0.105878 0.103888 0.10197 0.100137 0.0980692 0.0952114 0.0921369 0.0887288 0.0854576 0.0822148 0.0782955 0.074524 0.0718693 0.0699118 0.0675655 0.0652496 0.0631555 0.0613318 0.0607218 0.060786 0.061666 0.0631975 0.0654073 0.0671723 0.0683544 0.06882 0.068491 0.0678997 0.0673634 0.0668971 0.0663903 0.0665429 0.0673942 0.0682069 0.068758 0.0692549 0.0704243 0.0724597 0.0753218 0.0786286 0.0818168 0.0846917 0.0871425 0.0888737 0.0900593 0.0912049 0.0925574 0.0944407 0.0961865 0.0978153 0.0995993 0.101117 0.102478 0.103475 0.104032 0.10386 0.103317 0.102648 0.102331 0.102253 0.102232 0.10248 0.102553 0.10227 0.101222 0.0996925 0.098114 0.0965527 0.0946282 0.0922355 0.0896742 0.0865055 0.0825908 0.0785552 0.0750081 0.0719794 0.0700464 0.0692216 0.0688123 0.0684383 0.0681837 0.0691148 0.070643 0.0717752 0.0730073 0.0745388 0.0760963 0.0771242 0.0778515 0.0783611 0.0786943 0.078807 0.0787029 0.0782716 0.0775978 0.0768258 0.076396 0.0766434 0.0770465 0.0768282 0.0760712 0.075669 0.0757219 0.0757968 0.0760529 0.0765029 0.0766698 0.076596 0.0768317 0.0772829 0.0773832 0.0769547 0.0762882 0.0754836 0.0741873 0.0728585 0.0715427 0.069882 0.0679894 0.0658726 0.0638174 0.0621946 0.0611039 0.0601591 0.0594192 0.0591328 0.059362 0.0597801 0.0600555 0.0602448 0.0593438 0.0575738 0.0560303 0.0549441 0.0539282 0.0531932 0.0530585 0.0533704 0.0537333 0.053785 0.0530451 0.0534716 0.055095 0.0572699 0.0601561 0.0636581 0.0670412 0.0702691 0.0733993 0.0762165 0.0787097 0.0810641 0.0841428 0.0870532 0.0889952 0.0912098 0.0936024 0.0962567 0.0990808 0.101775 0.104769 0.107995 0.110576 0.113006 0.115473 0.117832 0.119899 0.121763 0.123215 0.123857 0.124013 0.123481 0.122493 0.121452 0.118952 0.115514 0.111328 0.106686 0.102186 0.098091 0.0941042 0.0903171 0.0871001 0.0844033 0.0820572 0.0795001 0.0771861 0.0750667 0.0727378 0.0704167 0.0687588 0.067742 0.0669061 0.065537 0.0642579 0.0634048 0.0626193 0.0617822 0.0609819 0.0604429 0.0598891 0.0591675 0.0586656 0.0580808 0.0575571 0.0571506 0.0569185 0.0566404 0.0559546 0.0556279 0.0554396 0.0550461 0.0545493 0.053754 0.0525046 0.051247 0.0500442 0.0488549 0.0473612 0.0459432 0.0452228 0.0443476 0.0433562 0.0419424 0.040325 0.039045 0.0382438 0.0374737 0.0365957 0.0357057 0.0348305 0.0339054 0.03291 0.0319478 0.0310378 0.0300794 0.0290836 0.0281071 0.02698 0.0258253 0.0248579 0.0240811 0.0234625 0.0230495 0.0227883 0.0224907 0.0221638 0.0217493 0.0208635 0.0195561 0.0180907 0.0168595 0.0160761 0.0154038 0.0146628 0.0136437 0.0123607 0.0110698 0.00997446 0.00915655 0.00854513 0.00807083 0.00767955 0.00759302 0.00766966 0.00783788
0.1319 0.13405 0.135955 0.137262 0.138218 0.138635 0.138426 0.138284 0.138771 0.138547 0.137279 0.13691 0.137009 0.137718 0.138416 0.139449 0.1407 0.142018 0.143171 0.143966 0.143697 0.143725 0.143975 0.144124 0.143787 0.142705 0.14128 0.139869 0.138147 0.136084 0.134364 0.132645 0.130725 0.129045 0.127267 0.125727 0.124346 0.123139 0.122215 0.121724 0.120403 0.11768 0.115628 0.114906 0.113156 0.111486 0.110296 0.109106 0.10736 0.105831 0.10405 0.102277 0.100548 0.0984603 0.0954652 0.0923118 0.0888681 0.0853026 0.0817519 0.0777313 0.0738748 0.0712133 0.0694082 0.0673167 0.0651823 0.0632377 0.0616026 0.0611433 0.0612638 0.0622661 0.0637819 0.0658999 0.0676184 0.0687581 0.0691557 0.0687415 0.0680677 0.0675214 0.0669797 0.0662777 0.0662514 0.0669879 0.067609 0.068037 0.068547 0.0698192 0.0719876 0.07499 0.0785668 0.081912 0.0849763 0.0876949 0.0894924 0.0906462 0.0917097 0.092951 0.0947517 0.0964317 0.097985 0.0998035 0.101383 0.102786 0.103784 0.104243 0.103969 0.103314 0.102542 0.102146 0.101925 0.101693 0.101838 0.10204 0.10198 0.101208 0.0998826 0.098486 0.0971844 0.0955293 0.0933245 0.0909388 0.0879683 0.0841257 0.0802069 0.0767488 0.073645 0.0715942 0.0706555 0.0700248 0.0693856 0.068903 0.0698 0.0716164 0.0729646 0.0743628 0.0761111 0.0779409 0.0792748 0.0802092 0.0808144 0.0811425 0.0811722 0.0810778 0.080735 0.0800967 0.0792832 0.0787973 0.0790093 0.0794247 0.0792632 0.0785386 0.0781492 0.0782185 0.0783368 0.0787164 0.079372 0.0797364 0.0797041 0.0800321 0.0805413 0.0806509 0.0802647 0.079645 0.0787731 0.0772823 0.0756577 0.0740423 0.0720849 0.0698478 0.0674776 0.0653216 0.0636702 0.0625609 0.0616112 0.0608892 0.0606211 0.0609224 0.061377 0.0616318 0.0617585 0.060803 0.0589956 0.0573601 0.056196 0.0551323 0.0543109 0.0540968 0.0542667 0.0543204 0.0540806 0.0532004 0.0530578 0.0540031 0.0555321 0.0578683 0.0609259 0.0641309 0.0672952 0.0703409 0.0731097 0.075574 0.0779513 0.081094 0.0840832 0.0860906 0.0883833 0.0908736 0.0936529 0.0965712 0.0992832 0.102331 0.105695 0.108512 0.111283 0.114135 0.116908 0.119309 0.121475 0.123312 0.124354 0.125 0.125178 0.124896 0.12439 0.122478 0.119592 0.115955 0.111805 0.107687 0.103811 0.0999241 0.0961211 0.0928405 0.0900568 0.0876082 0.0848674 0.0823459 0.0801435 0.0777734 0.0753926 0.0736522 0.0725486 0.0716359 0.0701836 0.0688063 0.067822 0.0668566 0.0658251 0.0648561 0.0641735 0.0634898 0.0626469 0.0619972 0.0611154 0.0602319 0.0595583 0.059051 0.0585524 0.0577034 0.0571766 0.0567493 0.0561146 0.0553591 0.0543516 0.0529871 0.0516106 0.0503322 0.0490738 0.0474975 0.0459628 0.0450974 0.0440931 0.0429812 0.0414079 0.0396716 0.0383372 0.0375114 0.0367095 0.0358063 0.0348754 0.0339496 0.0329683 0.0319315 0.0309229 0.0299594 0.0289857 0.0280169 0.0270643 0.0259907 0.0249047 0.0239994 0.0232634 0.0227114 0.0223805 0.0222186 0.0220336 0.0218148 0.0214988 0.0206785 0.0194185 0.0179976 0.0167859 0.0160185 0.0153659 0.0146221 0.0135658 0.0122724 0.0109736 0.00985768 0.00901192 0.00837193 0.00786128 0.00746664 0.00735995 0.00743615 0.00761851
0.132966 0.135109 0.137006 0.138296 0.139225 0.139606 0.139289 0.138891 0.139173 0.138799 0.137716 0.137541 0.137592 0.138298 0.13902 0.139891 0.140976 0.142312 0.14354 0.144255 0.143734 0.14361 0.144014 0.144279 0.144292 0.14353 0.142407 0.141246 0.13963 0.137536 0.135699 0.133779 0.131686 0.129923 0.128014 0.126376 0.124698 0.123153 0.12194 0.121188 0.119715 0.11683 0.114718 0.113948 0.112214 0.110592 0.109428 0.108291 0.106646 0.105381 0.103827 0.102212 0.100549 0.0985232 0.0955064 0.0921356 0.0886503 0.0849545 0.0811309 0.0768718 0.0729253 0.0702287 0.0684842 0.0665399 0.0645862 0.0627698 0.0612558 0.0609596 0.0610184 0.06203 0.0636468 0.065815 0.0675938 0.0687556 0.0691214 0.0686532 0.0679019 0.0672466 0.0666166 0.0658237 0.0656704 0.066286 0.0667322 0.0670964 0.0676422 0.0690209 0.0713118 0.0745109 0.0783505 0.0818403 0.0849306 0.0877925 0.0897474 0.0909036 0.0919416 0.0931282 0.0948403 0.0963896 0.097827 0.0996528 0.101266 0.102744 0.1038 0.104198 0.103828 0.103086 0.102265 0.101864 0.101688 0.101455 0.101479 0.101646 0.101716 0.101173 0.100113 0.0988791 0.0977468 0.0963803 0.0944374 0.0922089 0.0892981 0.0854175 0.0815165 0.0781255 0.0750169 0.072808 0.0717165 0.0710325 0.070437 0.070018 0.0710248 0.0731498 0.0747229 0.0762165 0.0780408 0.0800137 0.0815654 0.082667 0.0833333 0.0836634 0.0836363 0.0834047 0.0829982 0.0824434 0.0816964 0.0811358 0.0812258 0.0815176 0.0813034 0.0805313 0.0799928 0.0799187 0.0799795 0.0804471 0.0812804 0.0819131 0.0819773 0.0823349 0.0829546 0.0831781 0.0828067 0.0820747 0.0810108 0.079293 0.077397 0.0755411 0.0734126 0.0709953 0.0684407 0.0662076 0.0645625 0.063486 0.0625303 0.0617561 0.0614798 0.0617596 0.0621953 0.0624438 0.0626122 0.0617281 0.0600448 0.058523 0.0573923 0.0563383 0.0555214 0.0552819 0.0553564 0.055253 0.054732 0.053785 0.0532463 0.053667 0.0546163 0.0563546 0.0588411 0.0617219 0.064786 0.0677151 0.0703976 0.0728198 0.0752088 0.0783922 0.0813997 0.083418 0.0857518 0.0883095 0.0912065 0.0942266 0.0969941 0.100088 0.103494 0.106377 0.109296 0.112359 0.115349 0.117993 0.120471 0.122679 0.124156 0.125277 0.126067 0.126532 0.126582 0.125321 0.12306 0.12005 0.116511 0.112935 0.109427 0.105789 0.102223 0.0991158 0.0964325 0.0940031 0.0912072 0.0885905 0.08632 0.0838696 0.0813799 0.079492 0.0782726 0.0772573 0.0756748 0.0741374 0.0729812 0.0718229 0.0705549 0.0693827 0.068568 0.0677562 0.0667536 0.0659016 0.0647423 0.0634716 0.0624222 0.0616071 0.060853 0.059792 0.0590457 0.0583535 0.0574702 0.0564639 0.0551782 0.0535965 0.0520455 0.050639 0.049296 0.0476395 0.0460156 0.0450219 0.0439039 0.0426935 0.0409967 0.0391626 0.0378016 0.0369647 0.0361464 0.0352229 0.0342597 0.0333012 0.0322981 0.0312439 0.0302191 0.0292266 0.0282391 0.0273166 0.0263958 0.0253217 0.0242659 0.0234129 0.0227273 0.0222315 0.0219826 0.0218904 0.0217573 0.0215788 0.0212993 0.0205048 0.0192491 0.0178441 0.0166499 0.0158893 0.0152499 0.0145194 0.013455 0.0121614 0.0108884 0.00977115 0.00889406 0.00822148 0.00769181 0.00728902 0.00719667 0.00724661 0.00742095
0.133501 0.135693 0.137537 0.138851 0.139813 0.140188 0.139931 0.139507 0.139514 0.138985 0.138185 0.138259 0.138334 0.138947 0.139543 0.140132 0.141004 0.142256 0.143502 0.14406 0.14325 0.143057 0.143633 0.14407 0.144259 0.143843 0.143036 0.142109 0.140623 0.138555 0.136605 0.134505 0.132218 0.13034 0.128426 0.126747 0.125007 0.123295 0.121809 0.120738 0.118936 0.116042 0.114041 0.113212 0.111505 0.109957 0.108937 0.108032 0.106579 0.1056 0.104343 0.102921 0.101355 0.0994143 0.0963676 0.0927907 0.0891641 0.0854825 0.0816491 0.0771846 0.0729778 0.0701943 0.0684063 0.0664732 0.0646588 0.0630826 0.0617123 0.0613944 0.061467 0.0623147 0.0638369 0.0660177 0.0677723 0.0688743 0.0690836 0.0684402 0.0675756 0.0668201 0.0660992 0.0651789 0.0648623 0.0653775 0.0656525 0.0659108 0.0664279 0.0678059 0.0701703 0.0735436 0.0776236 0.0811949 0.0842906 0.0870849 0.0891744 0.0905272 0.0916147 0.0928482 0.0945662 0.095995 0.0973052 0.0991431 0.100823 0.102369 0.103545 0.103979 0.103595 0.102841 0.102059 0.101747 0.101701 0.101618 0.101809 0.102059 0.102196 0.101811 0.100967 0.0998577 0.0987904 0.0975752 0.0958749 0.0938554 0.0910714 0.0871546 0.0832278 0.0797896 0.0766584 0.0743804 0.0733231 0.0728227 0.07236 0.072015 0.073116 0.0753897 0.0771154 0.078628 0.0804366 0.0824291 0.0840501 0.0852352 0.0859402 0.0862529 0.086211 0.0859233 0.0854181 0.0847407 0.0839348 0.0833082 0.0832585 0.0834186 0.0831109 0.082293 0.0816148 0.0813363 0.0812392 0.0816709 0.0826495 0.0835398 0.0838002 0.0841801 0.0848642 0.0850516 0.0845534 0.0836721 0.0824382 0.0806171 0.0786214 0.0766355 0.074444 0.0719739 0.0693498 0.0670782 0.0654279 0.0643347 0.0633752 0.0625477 0.0621982 0.0623917 0.0627399 0.0629913 0.0632314 0.0624766 0.0609401 0.0595867 0.0585813 0.0576536 0.0569122 0.0566616 0.0566385 0.0562739 0.0555149 0.054553 0.0538324 0.0538874 0.0544078 0.055616 0.0575468 0.06003 0.0629422 0.0657694 0.0683342 0.0706666 0.0729972 0.0761763 0.0791593 0.0811403 0.0834882 0.0860636 0.0889939 0.0920246 0.0948183 0.0979565 0.101319 0.104139 0.107039 0.110185 0.113328 0.116126 0.118779 0.121243 0.123072 0.124616 0.125985 0.127043 0.12754 0.126893 0.125273 0.12291 0.120021 0.117046 0.114008 0.11066 0.107366 0.104506 0.101974 0.0995839 0.0967286 0.0940961 0.0918179 0.0892539 0.0866315 0.084555 0.0831616 0.082006 0.0802688 0.0785796 0.0772665 0.0759376 0.0744126 0.0729541 0.071963 0.0710341 0.0699199 0.0689235 0.0675729 0.0660703 0.0647749 0.063737 0.0627615 0.0614678 0.060478 0.0595527 0.0584514 0.05721 0.0556939 0.0538913 0.0521497 0.0506216 0.0492464 0.0475739 0.0459069 0.0448441 0.0436578 0.0423517 0.0405368 0.0386114 0.0372084 0.0363453 0.0355071 0.0345592 0.0335825 0.0326238 0.0316382 0.0305992 0.0295877 0.0286096 0.0276378 0.0267505 0.0258815 0.0248338 0.023802 0.0229893 0.0223823 0.0219671 0.0217597 0.0216878 0.0215948 0.0214592 0.0212209 0.0204636 0.019236 0.0178495 0.016669 0.0158992 0.0152509 0.0145627 0.0135603 0.0123036 0.0110689 0.00997076 0.00907991 0.00838086 0.00783516 0.0074167 0.0073048 0.00731903 0.00744845
0.133841 0.13612 0.13802 0.139413 0.140479 0.140941 0.140715 0.14038 0.140166 0.139528 0.138988 0.139306 0.139443 0.139916 0.14032 0.140678 0.141353 0.142422 0.143552 0.143937 0.142916 0.142684 0.143324 0.143797 0.144071 0.143839 0.143194 0.142509 0.141156 0.139087 0.137017 0.134706 0.132217 0.130143 0.128215 0.126474 0.12456 0.122696 0.121095 0.119861 0.117664 0.114605 0.112615 0.111817 0.11014 0.108629 0.10784 0.107304 0.106169 0.105498 0.104546 0.103304 0.10186 0.100046 0.0970505 0.0933314 0.0896664 0.0859808 0.0821762 0.0778611 0.0734396 0.0703884 0.0685546 0.0665978 0.064833 0.0634377 0.0623147 0.0619257 0.0618866 0.0626707 0.0640902 0.066103 0.0677405 0.0688113 0.0689801 0.0682375 0.0672095 0.0664565 0.0657877 0.0647795 0.0642159 0.064561 0.0647442 0.0648657 0.0653225 0.0666765 0.0690961 0.0724927 0.0766474 0.0802795 0.0834101 0.0862879 0.0883444 0.0898323 0.0910875 0.0923464 0.094075 0.0954454 0.0967004 0.0985753 0.100364 0.101997 0.10332 0.103907 0.103583 0.102872 0.102097 0.101801 0.101821 0.101823 0.10215 0.102626 0.103006 0.102823 0.102148 0.101092 0.100012 0.0987632 0.0970353 0.0949323 0.0922188 0.088427 0.0845967 0.0811723 0.0779816 0.0757847 0.0748633 0.0745581 0.07422 0.0739431 0.0751581 0.0774757 0.0792104 0.0806861 0.0824021 0.0842571 0.0857445 0.0868749 0.0875811 0.0879281 0.0879475 0.0876691 0.08712 0.0863469 0.0853848 0.0845988 0.0844512 0.0845253 0.0841369 0.0833147 0.0826112 0.082303 0.0822063 0.0826483 0.0836871 0.0846945 0.0850771 0.0854965 0.0860856 0.0861625 0.0856114 0.0847359 0.0834623 0.0815634 0.0795337 0.0775191 0.0753359 0.0728967 0.0703418 0.068178 0.0666107 0.0654903 0.0644881 0.0636701 0.0633059 0.0634832 0.0637941 0.063984 0.0641482 0.0633715 0.0619243 0.0606737 0.0597483 0.0588844 0.0582158 0.0579776 0.0578602 0.0572526 0.0561345 0.0550834 0.0542134 0.0540058 0.0542178 0.0549381 0.0563126 0.0582962 0.0609626 0.0637174 0.0661937 0.0683776 0.0706095 0.0737912 0.0767664 0.0786756 0.0809922 0.0835325 0.0863577 0.0892989 0.0920359 0.0951723 0.0985639 0.101458 0.104454 0.107698 0.110999 0.11399 0.116824 0.11944 0.121472 0.123309 0.125121 0.126792 0.127736 0.127678 0.126741 0.125044 0.122821 0.12044 0.11791 0.114886 0.111783 0.109058 0.106606 0.104205 0.101253 0.0985836 0.0963547 0.0937164 0.0909547 0.0887226 0.087161 0.0858983 0.084059 0.0822564 0.080774 0.0792503 0.0774824 0.0757038 0.0744433 0.0733738 0.0721803 0.0710915 0.0696131 0.0679374 0.066477 0.0653038 0.0641595 0.0626457 0.0614131 0.0602885 0.0589915 0.0575422 0.0558439 0.0539192 0.0521156 0.0505818 0.0492649 0.0476317 0.0458922 0.0447037 0.0434256 0.0420398 0.0400954 0.0380435 0.0365224 0.0355458 0.0346201 0.0335938 0.0325482 0.0315669 0.0306034 0.0296023 0.0286274 0.0276936 0.026767 0.0259247 0.0251117 0.0241242 0.0231473 0.022386 0.0218508 0.0215366 0.0213857 0.0213452 0.0213031 0.0212261 0.0210354 0.0203089 0.0191152 0.017765 0.0166302 0.0159305 0.0153604 0.0147768 0.0138965 0.0127386 0.0115333 0.0104487 0.00956214 0.00885684 0.0082905 0.00783511 0.0076721 0.00765283 0.0077525
0.13345 0.135679 0.137588 0.139113 0.140364 0.140966 0.14084 0.140562 0.140466 0.140027 0.139759 0.140311 0.140465 0.140839 0.141101 0.141434 0.142061 0.142898 0.143797 0.143976 0.142896 0.142652 0.143223 0.143611 0.143914 0.143714 0.143105 0.14245 0.141311 0.139292 0.137135 0.134613 0.131849 0.129593 0.127565 0.125641 0.123551 0.121399 0.119577 0.118063 0.115678 0.112453 0.110234 0.10938 0.107854 0.106422 0.105834 0.105696 0.105029 0.10458 0.103885 0.102798 0.101491 0.0997486 0.09683 0.093085 0.0894194 0.0857729 0.0820333 0.0778078 0.0735981 0.0702956 0.0681987 0.0662621 0.0646817 0.0634949 0.0625212 0.062155 0.0620825 0.0626376 0.063958 0.0658482 0.0674639 0.0684744 0.0685816 0.0678624 0.0668227 0.0660408 0.0654848 0.0644659 0.06364 0.0636104 0.0637339 0.0637462 0.0641296 0.0654215 0.067921 0.0713827 0.07557 0.0793479 0.0825643 0.0855861 0.0878265 0.0892767 0.090608 0.0920027 0.0937179 0.095003 0.0962199 0.0981327 0.0999788 0.101657 0.103137 0.103949 0.103822 0.103214 0.102484 0.102164 0.10215 0.102164 0.102555 0.103164 0.103787 0.103975 0.103638 0.102766 0.101828 0.100719 0.0990349 0.0968706 0.0941243 0.0902722 0.0862922 0.0829204 0.0798455 0.0777221 0.0769666 0.0768736 0.0767102 0.0765507 0.0778716 0.0802294 0.0819073 0.0832975 0.0849223 0.0866094 0.0878516 0.0887754 0.0893715 0.0897206 0.0898328 0.0896289 0.0890899 0.0882687 0.0872466 0.0863447 0.0860269 0.0859739 0.0854348 0.0844567 0.0835806 0.0831723 0.0830132 0.0834436 0.0846251 0.0858283 0.0862408 0.086579 0.0870919 0.0870445 0.0864534 0.085616 0.0843786 0.0824926 0.080454 0.0784677 0.0763758 0.0739972 0.0715393 0.0695117 0.0680967 0.0670863 0.0660885 0.0653122 0.0650155 0.065206 0.0655038 0.0656324 0.0656844 0.0647463 0.0631865 0.061901 0.0609613 0.0600705 0.0593556 0.059029 0.0587347 0.0578447 0.056416 0.055165 0.0541857 0.0536346 0.0535701 0.0538874 0.0547989 0.0562893 0.0585552 0.0611556 0.0635598 0.0655904 0.0677105 0.0708803 0.0739241 0.07582 0.0780597 0.0804628 0.0830919 0.0858781 0.0885136 0.0916352 0.0950971 0.0981678 0.101429 0.104868 0.108339 0.111497 0.114522 0.117372 0.119689 0.121862 0.124096 0.126275 0.12775 0.128205 0.128033 0.127084 0.125573 0.123791 0.121783 0.119158 0.116262 0.113655 0.111278 0.108871 0.105867 0.103134 0.100886 0.0982071 0.0953815 0.0930212 0.0912865 0.0899269 0.0879808 0.086033 0.0843246 0.0825172 0.0804912 0.0784554 0.0769263 0.0756561 0.0743073 0.0730236 0.071359 0.0695061 0.0678608 0.0665146 0.0651965 0.0634667 0.0619783 0.0606591 0.0591873 0.0575657 0.0557396 0.0537494 0.0519227 0.050389 0.0490779 0.047383 0.0454833 0.044112 0.042712 0.0412732 0.0392833 0.0371289 0.0354805 0.0343699 0.0333238 0.0321971 0.0310496 0.0299853 0.028969 0.0279521 0.0269936 0.0261076 0.0252348 0.0244374 0.0236856 0.0227889 0.0219139 0.0212405 0.0207913 0.0205898 0.0205166 0.0205294 0.0205409 0.0205077 0.0203629 0.0196988 0.018595 0.017381 0.0164185 0.0159145 0.0155326 0.0150878 0.0143175 0.0132525 0.0120673 0.0109704 0.0100855 0.00937991 0.00879802 0.00831434 0.00811324 0.00805956 0.00812356
0.133091 0.135201 0.136997 0.138539 0.139902 0.140557 0.140449 0.140131 0.140059 0.140057 0.140298 0.141273 0.141583 0.141954 0.142173 0.142511 0.143161 0.143875 0.144576 0.144549 0.143449 0.143202 0.14363 0.143881 0.144187 0.143954 0.143261 0.14248 0.141395 0.139542 0.137411 0.134826 0.131974 0.129614 0.127433 0.125238 0.122857 0.120375 0.118298 0.116457 0.113877 0.110715 0.108301 0.107184 0.105645 0.104239 0.103628 0.103691 0.103475 0.103456 0.102947 0.102027 0.100817 0.0991198 0.0962078 0.0924978 0.0888663 0.0853071 0.0817182 0.0776151 0.073553 0.0703811 0.0680595 0.0659724 0.0644722 0.06342 0.0625275 0.0621925 0.0620956 0.0624673 0.0636092 0.0653361 0.0669303 0.0678747 0.067833 0.0671062 0.066145 0.0653965 0.0649279 0.0639827 0.0630841 0.0626792 0.0624765 0.0623544 0.0626458 0.0639149 0.0664545 0.0700318 0.0742137 0.0781292 0.0814796 0.0845905 0.0869672 0.0885376 0.089805 0.09129 0.0931187 0.09435 0.0954943 0.0974073 0.0992595 0.100918 0.102431 0.103327 0.103352 0.102909 0.102347 0.102094 0.102063 0.10201 0.102337 0.102982 0.10371 0.104134 0.10416 0.103493 0.102729 0.101777 0.100231 0.0981245 0.0954261 0.091809 0.0879222 0.0844236 0.0814416 0.0795796 0.0790543 0.0791916 0.0792572 0.0792793 0.0808008 0.0832988 0.0849828 0.0863154 0.0879156 0.089604 0.0908086 0.0916415 0.0921174 0.0923742 0.0925026 0.0923434 0.0918553 0.0910681 0.0899967 0.0890152 0.0885375 0.0883378 0.0877442 0.0867094 0.0857449 0.0852059 0.0849143 0.0851572 0.0861039 0.0871512 0.0876303 0.0879116 0.08824 0.0880597 0.0874352 0.0866293 0.085415 0.0834959 0.0814351 0.0794734 0.0774541 0.0751591 0.0727206 0.0707473 0.0693995 0.0684666 0.0675331 0.0667841 0.0665228 0.0666846 0.0668897 0.0669632 0.0670124 0.0660253 0.0643317 0.0628551 0.0617595 0.0607589 0.0599075 0.0593991 0.058906 0.0577937 0.0561599 0.0547683 0.0536844 0.0529621 0.0525477 0.0523902 0.0528222 0.0540001 0.0559351 0.0583325 0.0606371 0.062564 0.0645543 0.067692 0.0707576 0.0726921 0.0749044 0.0771659 0.0796342 0.0823175 0.0849204 0.0881115 0.0917249 0.0949751 0.0984782 0.102179 0.105882 0.109228 0.112453 0.115633 0.118374 0.120922 0.12358 0.126221 0.128194 0.129234 0.129757 0.129652 0.128978 0.127904 0.126437 0.124302 0.121703 0.119262 0.116972 0.114545 0.111482 0.108749 0.106469 0.103715 0.100836 0.0984068 0.0965057 0.0950293 0.0929877 0.0908359 0.0888496 0.0867109 0.0843498 0.0820151 0.0801773 0.0785943 0.0769222 0.075265 0.0732704 0.0711255 0.0692074 0.067576 0.0659494 0.063944 0.0621871 0.0606573 0.0590119 0.0572029 0.0552375 0.053174 0.0513047 0.04975 0.0484283 0.0466642 0.0446304 0.0431488 0.04169 0.0402051 0.0381918 0.0360436 0.0343309 0.0331107 0.0319714 0.030759 0.0295381 0.0284032 0.0273219 0.0262621 0.0252815 0.0243905 0.0235186 0.0227401 0.0220472 0.0212361 0.0204695 0.0199151 0.0195816 0.0195009 0.0195149 0.0195922 0.0196769 0.0197219 0.0196776 0.0191421 0.0181764 0.0171401 0.0163797 0.016053 0.0158138 0.0154755 0.0147812 0.0137804 0.0126012 0.0114811 0.0105951 0.0098869 0.00929281 0.00878605 0.00855494 0.00847307 0.00850358
0.132562 0.134603 0.136372 0.137972 0.139462 0.14022 0.140232 0.140017 0.140131 0.140408 0.141042 0.142306 0.142691 0.143034 0.143251 0.143565 0.144018 0.144656 0.145277 0.145101 0.143926 0.143617 0.143829 0.143959 0.144241 0.143956 0.143118 0.142098 0.140829 0.139049 0.136989 0.134457 0.131603 0.129119 0.12673 0.124196 0.12153 0.118767 0.116461 0.114304 0.111511 0.108301 0.105777 0.104559 0.103001 0.101785 0.101198 0.101319 0.101241 0.101697 0.101609 0.100929 0.0998781 0.0982708 0.0953665 0.0917551 0.0882234 0.0847582 0.0813312 0.0773791 0.0734724 0.0704982 0.0681974 0.0660062 0.0643824 0.0633079 0.0625096 0.0621957 0.0620587 0.0622753 0.0632365 0.0647443 0.0662622 0.0671313 0.066973 0.0662118 0.0652639 0.0645811 0.0641534 0.0633747 0.0625323 0.0619465 0.061471 0.0610515 0.061223 0.0624642 0.0650647 0.0688038 0.0730795 0.0769435 0.080358 0.0834298 0.0858326 0.0874762 0.0887521 0.0901662 0.0919955 0.0932007 0.0942957 0.0961549 0.0980083 0.0996614 0.101202 0.102183 0.102329 0.102018 0.101609 0.101448 0.101443 0.101399 0.101712 0.102328 0.103012 0.103465 0.103787 0.103368 0.102812 0.102004 0.100634 0.0986605 0.0959597 0.0924285 0.0888505 0.0855246 0.0825417 0.0808603 0.0806599 0.0810525 0.0814453 0.0817787 0.083573 0.0864112 0.0883381 0.089725 0.0913483 0.0930594 0.0942719 0.0951065 0.0955605 0.0957546 0.0958397 0.095669 0.0951828 0.0944003 0.0933044 0.0923179 0.0917922 0.0914733 0.090827 0.0897867 0.0888225 0.0882745 0.0878712 0.0878812 0.0884877 0.0891714 0.0893782 0.0896034 0.0898122 0.0894262 0.0887452 0.087859 0.0865399 0.0845357 0.0823174 0.0802447 0.078222 0.0759238 0.0734538 0.0714351 0.0700731 0.0690935 0.0681653 0.0674319 0.067148 0.0672681 0.0673727 0.0673933 0.0674651 0.0664892 0.0647678 0.0631767 0.0619048 0.0607004 0.059612 0.0588423 0.0581214 0.0568793 0.0551961 0.0537209 0.0525767 0.0518489 0.0512765 0.0506416 0.0504987 0.0512956 0.0529517 0.05512 0.0573219 0.0591682 0.0610513 0.0640856 0.0670793 0.068962 0.0711437 0.0732765 0.0755614 0.0781117 0.0806356 0.0838584 0.087566 0.0909853 0.0946707 0.0985672 0.102478 0.106068 0.109586 0.113147 0.116304 0.11919 0.122198 0.125232 0.127749 0.129451 0.130704 0.131381 0.131594 0.13137 0.130585 0.129024 0.126855 0.124632 0.122461 0.120051 0.116884 0.114179 0.112003 0.109297 0.106433 0.104046 0.102163 0.100596 0.0984781 0.0961952 0.0939826 0.0915972 0.0889624 0.0863115 0.084105 0.0821076 0.0799962 0.0779669 0.0756946 0.0732582 0.0709983 0.068965 0.0668754 0.0644457 0.0624208 0.0607204 0.0589638 0.0570209 0.0549137 0.0527669 0.0508558 0.0492801 0.0479714 0.0462483 0.0441656 0.0426053 0.0411028 0.0395878 0.037537 0.0354021 0.0337321 0.032459 0.0312558 0.0299784 0.0286936 0.0275016 0.026361 0.025256 0.0242442 0.0233124 0.0223788 0.0215298 0.0208129 0.020043 0.019368 0.0189174 0.0186794 0.0186708 0.0187202 0.0188088 0.0189432 0.019088 0.0191822 0.0188096 0.0180022 0.0171313 0.0165178 0.0162996 0.0161446 0.015888 0.0152712 0.014337 0.0131748 0.0120425 0.0111572 0.0104409 0.00983542 0.00930771 0.00903487 0.00892431 0.0089277
0.132346 0.134375 0.136123 0.137704 0.139209 0.140022 0.140145 0.140042 0.140399 0.140989 0.14194 0.143546 0.144146 0.144592 0.144785 0.145064 0.145488 0.145873 0.146179 0.14578 0.144441 0.143978 0.143936 0.143982 0.144193 0.14377 0.14274 0.141534 0.140025 0.138211 0.136171 0.133642 0.130753 0.128154 0.125541 0.122698 0.11977 0.116867 0.114407 0.112005 0.109008 0.105721 0.103016 0.101711 0.100154 0.0990547 0.09844 0.0985892 0.0986441 0.099215 0.0995243 0.0992969 0.0985271 0.0971186 0.0942911 0.0908563 0.0874606 0.0841731 0.0809406 0.0771831 0.0733803 0.070572 0.0682475 0.0659306 0.0642568 0.0631317 0.0622607 0.0618252 0.0615592 0.0616495 0.0624474 0.0637479 0.0651337 0.0659056 0.0656241 0.064818 0.0637961 0.0630489 0.0625905 0.0620225 0.0613893 0.0608265 0.0602557 0.0596826 0.0597122 0.0608804 0.0634448 0.0672663 0.071744 0.0757801 0.0793 0.0824155 0.0847883 0.086486 0.0877927 0.0892116 0.0910688 0.0922207 0.0932628 0.0951051 0.0970067 0.0986839 0.10022 0.101227 0.10148 0.101316 0.101066 0.100996 0.100964 0.100911 0.101261 0.101902 0.102572 0.10303 0.103498 0.103366 0.103053 0.102465 0.101297 0.099532 0.0969582 0.09346 0.0899735 0.0867913 0.0838922 0.0822213 0.0821909 0.0826891 0.0831705 0.0837887 0.0858055 0.0888214 0.0909424 0.0924426 0.0940643 0.0958072 0.0970558 0.0979427 0.0984794 0.0987229 0.0988021 0.0986289 0.0981513 0.0973436 0.0961758 0.0951503 0.0945904 0.0941816 0.0934465 0.0923912 0.0913961 0.0907686 0.090276 0.0901115 0.0903788 0.0906678 0.0905054 0.0904709 0.0906128 0.0902371 0.0896956 0.0889709 0.0875969 0.0855604 0.0833117 0.0811508 0.0790569 0.076747 0.0742505 0.0721822 0.0707905 0.0696709 0.0685892 0.067811 0.0675191 0.0676197 0.0676385 0.0676138 0.0677026 0.0667162 0.0649957 0.0633822 0.0619985 0.0606043 0.0592967 0.0582893 0.0572996 0.0558693 0.0541334 0.0526124 0.0514331 0.0506211 0.0499954 0.0489863 0.0483441 0.0486624 0.0499442 0.0517926 0.0537972 0.0555651 0.0574236 0.060342 0.063206 0.0649641 0.0670953 0.0690828 0.0711249 0.0735392 0.0759932 0.0791876 0.0828791 0.0863594 0.0901553 0.0941836 0.0982646 0.102063 0.105823 0.109619 0.112957 0.116019 0.119234 0.122529 0.125477 0.127759 0.129778 0.131145 0.132139 0.132687 0.132684 0.131808 0.130178 0.128293 0.126317 0.123986 0.120728 0.118004 0.115951 0.113389 0.110695 0.108463 0.106679 0.105102 0.10289 0.100539 0.0982017 0.0957086 0.0929132 0.0899993 0.0874573 0.085149 0.0827882 0.0805879 0.0781944 0.0756043 0.0731057 0.0707281 0.0681713 0.0652684 0.0629173 0.0610614 0.0592594 0.0573015 0.0551715 0.0530412 0.0511788 0.0496145 0.0483408 0.0467641 0.0447665 0.0432003 0.0416646 0.0401084 0.038032 0.0358873 0.0342453 0.0330361 0.031812 0.0304805 0.029117 0.0278439 0.0266342 0.0254771 0.0244186 0.0234315 0.0224363 0.0215123 0.0207285 0.0199263 0.0192584 0.018852 0.0186391 0.0186269 0.0186387 0.0186715 0.0187534 0.0188864 0.0190193 0.0187362 0.0180534 0.0172918 0.0167411 0.0165621 0.0164362 0.0162201 0.0156713 0.0148183 0.0137204 0.0126104 0.0117306 0.011011 0.0103911 0.00984312 0.00955464 0.00943027 0.00942894
0.132024 0.13396 0.135624 0.137213 0.138793 0.139702 0.139945 0.140002 0.140596 0.141516 0.142703 0.144565 0.145421 0.146113 0.146443 0.146718 0.147186 0.147669 0.147481 0.146573 0.144947 0.144207 0.143951 0.143884 0.143855 0.143143 0.141827 0.140456 0.138879 0.137009 0.135036 0.132638 0.129847 0.127225 0.124455 0.12139 0.118195 0.115145 0.112551 0.109981 0.106774 0.103376 0.100511 0.0990867 0.0975375 0.0966453 0.0962261 0.0963022 0.0964064 0.0970194 0.0972983 0.0974207 0.0969828 0.0958419 0.0932437 0.0900594 0.0868837 0.0838855 0.0809366 0.0774158 0.0736729 0.0708172 0.0684918 0.0661043 0.0643588 0.0631848 0.0621278 0.0614182 0.060859 0.0606704 0.0611812 0.0622382 0.0634006 0.0639848 0.0635516 0.0626832 0.0615908 0.0607501 0.0601431 0.0595252 0.059131 0.0587241 0.0581559 0.0576037 0.0575759 0.0587116 0.0612419 0.0650151 0.0695525 0.0738204 0.0775444 0.0807908 0.0831501 0.0848769 0.0862631 0.0877375 0.089631 0.0907762 0.0917691 0.0936697 0.0957575 0.0976112 0.0992923 0.100415 0.100784 0.100782 0.100754 0.100894 0.100964 0.100941 0.101302 0.101971 0.102677 0.103199 0.103779 0.103911 0.103774 0.103391 0.102437 0.100856 0.0984788 0.0951458 0.0916819 0.0885465 0.085723 0.0842031 0.0843977 0.0852158 0.0859891 0.0869048 0.0891476 0.092214 0.0943173 0.0957864 0.0972947 0.0988731 0.0999924 0.100802 0.101307 0.101572 0.101653 0.101476 0.101044 0.100286 0.0991078 0.0980422 0.0973986 0.0968949 0.0960861 0.0950316 0.0940516 0.0933284 0.0927356 0.0925102 0.0926262 0.0926608 0.092167 0.0918712 0.0918204 0.0913405 0.0906821 0.0898191 0.088336 0.0862118 0.0839591 0.0818163 0.079725 0.0774859 0.0750931 0.0731377 0.0718145 0.0707406 0.0695664 0.0686741 0.068293 0.0683743 0.0683463 0.0682822 0.0683381 0.0673596 0.0656679 0.0640539 0.062587 0.0610558 0.0595967 0.0583908 0.0571376 0.0554292 0.0535487 0.0519969 0.0508017 0.049877 0.0490804 0.0479128 0.0469214 0.0468823 0.0477683 0.0491543 0.050739 0.0521901 0.0537787 0.0564487 0.0591272 0.0607642 0.062778 0.0645707 0.0663475 0.0686279 0.0710129 0.0741365 0.0777517 0.0812103 0.085043 0.0891493 0.0933152 0.0972141 0.10107 0.104931 0.108328 0.111448 0.11476 0.118218 0.121439 0.12407 0.12661 0.128599 0.130173 0.131383 0.132008 0.13183 0.130869 0.129506 0.127921 0.125891 0.122734 0.119976 0.118009 0.115569 0.11311 0.111094 0.109407 0.107846 0.105633 0.103212 0.100789 0.0982304 0.095336 0.0923039 0.0895906 0.0871221 0.0847078 0.0824821 0.0800454 0.077389 0.0747476 0.0721385 0.0692912 0.0661074 0.0634911 0.0613959 0.0594396 0.0574287 0.0552735 0.0531621 0.0513839 0.0499021 0.0486862 0.0472498 0.0454064 0.0438905 0.0423808 0.0408005 0.0386965 0.0365424 0.0348709 0.0336517 0.0324882 0.0311953 0.0297938 0.0284268 0.0271282 0.0259154 0.0248256 0.0238002 0.022764 0.0217958 0.0209687 0.0201394 0.0194498 0.0190305 0.0187858 0.0187358 0.018717 0.0187337 0.0187881 0.0188892 0.0190182 0.0187627 0.0181377 0.0174392 0.0169253 0.0167761 0.0166815 0.0165113 0.016014 0.0152442 0.0142651 0.0132719 0.0124598 0.0117571 0.0111349 0.0105826 0.0102905 0.0101609 0.0101775
0.131092 0.132751 0.134173 0.135687 0.137332 0.138321 0.138643 0.138799 0.139578 0.140809 0.142206 0.144156 0.145084 0.145979 0.146541 0.146923 0.147355 0.147659 0.147284 0.146017 0.144187 0.143282 0.142971 0.14289 0.14267 0.141652 0.140176 0.138815 0.137356 0.135447 0.133646 0.13157 0.129108 0.126702 0.124017 0.120986 0.117725 0.114546 0.111852 0.109175 0.105875 0.102385 0.0994454 0.0979406 0.0963708 0.0955707 0.0954219 0.0955815 0.0956918 0.0963327 0.0967475 0.0969026 0.0965534 0.0955029 0.0930012 0.0899283 0.0869553 0.0842187 0.0815438 0.0781788 0.0743498 0.0712832 0.0690522 0.0666983 0.064855 0.0635228 0.0622345 0.0613397 0.0605601 0.0600694 0.0603026 0.0611139 0.0620955 0.0624881 0.0618945 0.0609349 0.059818 0.0589721 0.0583021 0.057505 0.0571107 0.0567952 0.0562988 0.0558306 0.0558644 0.0570175 0.0595773 0.0633628 0.0678924 0.0723315 0.076287 0.0796867 0.0821259 0.0838727 0.085265 0.08672 0.088584 0.0897322 0.0907604 0.0927355 0.0948763 0.096807 0.0986404 0.0999368 0.100464 0.100579 0.100648 0.100895 0.101026 0.101104 0.101537 0.102238 0.10295 0.103513 0.104164 0.104482 0.104566 0.104359 0.103633 0.102237 0.100032 0.0969536 0.0935765 0.0904495 0.087753 0.0864169 0.0868349 0.088037 0.0891643 0.0903964 0.0928975 0.0960774 0.0981803 0.0996185 0.101051 0.102461 0.103405 0.104042 0.104368 0.104545 0.104691 0.104587 0.104224 0.103581 0.102533 0.101544 0.100909 0.10036 0.0995388 0.0985173 0.0975757 0.0967993 0.0961287 0.0958617 0.0959049 0.0957564 0.0949675 0.0943346 0.0940149 0.0933378 0.0924006 0.0912662 0.089523 0.0871688 0.0847752 0.082586 0.0804782 0.0782886 0.0760092 0.0741333 0.0728233 0.0718227 0.0706965 0.0697213 0.0691547 0.0691382 0.0689981 0.0688451 0.0688617 0.0678947 0.0662283 0.0645709 0.0629961 0.0613461 0.0597795 0.0584124 0.0569321 0.054974 0.0529381 0.0514102 0.0502704 0.0493087 0.0484334 0.0472022 0.0461071 0.0458079 0.0464888 0.0475106 0.048581 0.0495363 0.0506185 0.0527976 0.0551389 0.0566273 0.0584889 0.0601011 0.0616616 0.0638354 0.0660863 0.0690553 0.072563 0.0760092 0.0798472 0.0839549 0.0881459 0.092109 0.0960344 0.0999295 0.10339 0.106574 0.109972 0.113577 0.116987 0.119789 0.122605 0.124982 0.127016 0.128726 0.129898 0.130223 0.129932 0.129239 0.128201 0.126637 0.12381 0.121149 0.119282 0.116995 0.114746 0.11291 0.111313 0.109812 0.107708 0.105376 0.102919 0.100218 0.0972242 0.0941261 0.0913154 0.0886966 0.0861888 0.0839042 0.0813777 0.0785852 0.075768 0.072961 0.0699832 0.0667355 0.0640213 0.0617834 0.0596546 0.0575413 0.0553608 0.0531997 0.0514154 0.050016 0.0488877 0.0475592 0.0458517 0.044404 0.0429128 0.0412954 0.0391481 0.0369929 0.0353315 0.0340731 0.03285 0.0315952 0.0303176 0.0289762 0.0276311 0.0263622 0.0252485 0.0242121 0.0231592 0.0221694 0.0213214 0.0204815 0.0197785 0.0193085 0.0189834 0.0188655 0.018795 0.0187911 0.0188508 0.0189443 0.0190807 0.0188668 0.0182629 0.0175861 0.0170983 0.0169844 0.0169433 0.0168434 0.0164304 0.0157484 0.0148844 0.0140268 0.0133569 0.012763 0.0122036 0.0116386 0.0113222 0.0112183 0.0112773
0.129439 0.130721 0.131796 0.132969 0.134424 0.135363 0.135707 0.135865 0.136703 0.138163 0.139718 0.141748 0.142717 0.14369 0.144425 0.144911 0.145323 0.145503 0.144896 0.143395 0.141439 0.140512 0.140282 0.140288 0.139982 0.138999 0.137662 0.136492 0.135224 0.133415 0.131896 0.130157 0.128033 0.125942 0.123548 0.12087 0.11799 0.114952 0.112204 0.109424 0.106095 0.102631 0.099688 0.0981924 0.0965577 0.0957557 0.0956064 0.0957896 0.0958636 0.0965007 0.0969607 0.0972397 0.0970015 0.0960019 0.0934787 0.0903529 0.08748 0.0849519 0.0823115 0.0788751 0.0748186 0.0715412 0.0694104 0.0670723 0.0651107 0.0636158 0.0621328 0.0610424 0.0600905 0.0593809 0.0594548 0.0601439 0.0609436 0.0611492 0.0604814 0.0594206 0.0582247 0.0574169 0.0567672 0.0559949 0.0554952 0.0552055 0.0548038 0.0543287 0.0544139 0.055574 0.0581581 0.0620119 0.0666111 0.0712555 0.0754662 0.0790096 0.0815648 0.0834065 0.0847633 0.0861051 0.0878907 0.0890349 0.0901121 0.0921502 0.0942955 0.0961733 0.0979676 0.0992845 0.0998873 0.100158 0.100382 0.100678 0.100788 0.100784 0.101145 0.101781 0.102478 0.103069 0.103742 0.104115 0.104464 0.104464 0.103975 0.102808 0.100777 0.0979213 0.094639 0.0915157 0.0889775 0.0878415 0.0883407 0.0897482 0.0911546 0.092559 0.0951559 0.098374 0.100505 0.101973 0.103397 0.104769 0.10563 0.10617 0.106335 0.106315 0.106372 0.106378 0.106183 0.105668 0.104773 0.10389 0.103308 0.102823 0.1021 0.101176 0.100329 0.0995822 0.098905 0.0986319 0.0986467 0.0983804 0.0973572 0.0964373 0.0958587 0.0950335 0.0939798 0.0926976 0.09085 0.0884089 0.085944 0.0836846 0.0815106 0.0793029 0.0770436 0.0751812 0.073807 0.072747 0.0716004 0.0705428 0.0697703 0.069551 0.0693445 0.0691709 0.0692296 0.0683324 0.0667075 0.0649971 0.0633219 0.0615343 0.0598468 0.0583306 0.0566614 0.0545 0.0523541 0.0508561 0.0497651 0.0488326 0.0479348 0.0466687 0.0456216 0.0451826 0.0456608 0.0465226 0.0472566 0.0478259 0.048553 0.0503174 0.0522858 0.0536058 0.0553306 0.0568313 0.0582771 0.0603237 0.0624879 0.0652443 0.0685323 0.0718658 0.0756256 0.0796302 0.0837989 0.0877918 0.0917753 0.0957502 0.0993178 0.102582 0.106048 0.10971 0.113226 0.116158 0.119125 0.121787 0.124175 0.126206 0.127841 0.128658 0.128823 0.128738 0.128209 0.127026 0.124483 0.122007 0.120243 0.118105 0.116037 0.11433 0.112804 0.111367 0.109374 0.107147 0.104741 0.102072 0.0990748 0.0958716 0.0929124 0.090116 0.087388 0.0848872 0.0821658 0.0791603 0.0761344 0.0731431 0.0700792 0.0668325 0.0640963 0.0618125 0.0596106 0.0573925 0.055169 0.0529846 0.0511354 0.0497696 0.0487224 0.0475092 0.0459045 0.0445229 0.0430418 0.0413497 0.0391142 0.0369328 0.0352907 0.0340556 0.0328483 0.0315641 0.0303062 0.0290657 0.0278036 0.0265782 0.0254806 0.0244552 0.0234142 0.0224501 0.0216413 0.0208461 0.0201666 0.0196472 0.0192394 0.0190457 0.0189168 0.0188639 0.0189006 0.0189796 0.0191081 0.0189152 0.0183363 0.017673 0.0172049 0.0171345 0.0171597 0.0171279 0.0167851 0.0161697 0.0153654 0.0145739 0.0139602 0.0134156 0.0129064 0.0123517 0.0120153 0.0119311 0.0120177
0.128084 0.12899 0.129734 0.13058 0.131719 0.132411 0.132655 0.132696 0.133448 0.135027 0.136723 0.138885 0.139973 0.141048 0.14189 0.142384 0.142759 0.142886 0.142203 0.140589 0.138537 0.137633 0.137435 0.137435 0.137016 0.135959 0.134638 0.133655 0.132391 0.130443 0.128974 0.127536 0.125634 0.123727 0.12161 0.119335 0.116922 0.114297 0.11171 0.108934 0.105685 0.102416 0.0995669 0.0981896 0.0965512 0.0956823 0.0955105 0.0956075 0.0956459 0.0961935 0.0965772 0.0968655 0.0967522 0.0959372 0.0935352 0.0905205 0.0878122 0.0854736 0.0829884 0.0795929 0.0753142 0.0718177 0.0698232 0.0676871 0.0656874 0.0641353 0.0625633 0.0613485 0.0602731 0.0593987 0.059256 0.0597642 0.0603404 0.0603743 0.0597176 0.0585729 0.0571893 0.0563129 0.0556792 0.0549091 0.0543431 0.0539636 0.05363 0.0532382 0.0532333 0.0543113 0.0567838 0.0605334 0.0651487 0.0699204 0.0744176 0.0781594 0.08086 0.0828337 0.0842555 0.0854961 0.0871313 0.0881646 0.0891801 0.0912166 0.0933446 0.0951352 0.0968088 0.0980358 0.0986517 0.0990523 0.0994035 0.0996894 0.0998557 0.0998009 0.0999738 0.100394 0.100984 0.10162 0.102378 0.102806 0.103277 0.103579 0.103325 0.102423 0.100631 0.0979439 0.094775 0.0916162 0.0891188 0.0880787 0.0886675 0.0901354 0.091739 0.0932801 0.09593 0.0991384 0.101218 0.10261 0.10392 0.105159 0.105952 0.106434 0.106515 0.106361 0.106264 0.106205 0.106085 0.105672 0.104927 0.104169 0.103642 0.103249 0.102684 0.101933 0.101215 0.10057 0.0999479 0.0997397 0.0997966 0.0995544 0.0985077 0.0974721 0.0968295 0.0958897 0.0947826 0.0934527 0.091631 0.0892077 0.0867597 0.0845345 0.0824024 0.0802443 0.078042 0.0761893 0.0747835 0.0736683 0.0724863 0.0713299 0.0704063 0.0699629 0.0696842 0.0695718 0.0697071 0.0688723 0.0673052 0.0656002 0.0639064 0.0620519 0.0602389 0.0585746 0.0567529 0.0544423 0.0521819 0.0506565 0.0496085 0.0486659 0.0477458 0.0464809 0.0454057 0.0450139 0.0453337 0.0459872 0.0465151 0.0468409 0.0474099 0.0489329 0.05061 0.0517169 0.0532721 0.0546349 0.0559959 0.0578728 0.0598812 0.0624737 0.0654921 0.0685951 0.072199 0.076054 0.0801212 0.0840302 0.0880028 0.0920395 0.0957062 0.09899 0.10244 0.106112 0.109673 0.112747 0.11586 0.118779 0.121458 0.123837 0.125773 0.127126 0.127817 0.128193 0.128127 0.127273 0.12496 0.122644 0.121028 0.11905 0.117179 0.115635 0.114207 0.112824 0.110882 0.108708 0.106324 0.103675 0.100744 0.0975407 0.0945164 0.0915857 0.0886246 0.0858289 0.0828796 0.0796758 0.0764381 0.0732526 0.0700552 0.0667696 0.0639888 0.0616389 0.0593703 0.0570468 0.0547002 0.0524514 0.0505567 0.0491505 0.048121 0.0470117 0.0455158 0.0441903 0.042718 0.0409347 0.038573 0.036321 0.0346741 0.0334458 0.032282 0.0310736 0.0298159 0.0285979 0.0273929 0.0262284 0.0251791 0.0241948 0.0231963 0.0222923 0.0215622 0.0208485 0.0202438 0.0197549 0.0193682 0.0191785 0.0190397 0.0189541 0.0189554 0.0190121 0.0191235 0.0189299 0.0183697 0.017734 0.0172952 0.0172688 0.0173566 0.017395 0.0171448 0.016636 0.015931 0.0152225 0.0146708 0.0142043 0.0138269 0.0134412 0.0131332 0.0130147 0.0130683
0.127291 0.12791 0.128395 0.129057 0.129926 0.130272 0.130282 0.130174 0.130866 0.132542 0.134347 0.136607 0.13784 0.13901 0.139891 0.140266 0.140573 0.140667 0.139985 0.138328 0.136323 0.135593 0.135528 0.135496 0.134999 0.133982 0.132641 0.131675 0.130602 0.128557 0.126812 0.125297 0.123434 0.121486 0.119523 0.117539 0.115426 0.113187 0.110976 0.108369 0.105249 0.102175 0.0994666 0.0982757 0.0967681 0.0958509 0.0956063 0.0956222 0.095673 0.096222 0.0965157 0.0966595 0.0965115 0.0957572 0.0934926 0.0906657 0.0881553 0.0859563 0.0835108 0.0802095 0.0759961 0.0722978 0.0702629 0.0683077 0.0664255 0.064922 0.0633619 0.0620782 0.060918 0.0599155 0.0595823 0.0598747 0.0602849 0.0601996 0.0595656 0.0584789 0.0569088 0.0558408 0.0550783 0.054237 0.0536006 0.0531191 0.0527185 0.0523934 0.052381 0.0533767 0.0557377 0.0592919 0.0637634 0.0685174 0.0731546 0.0771676 0.0800916 0.0822428 0.0837951 0.0850274 0.0865428 0.0874734 0.0883764 0.0903473 0.0924103 0.0940997 0.0956531 0.0967769 0.0973514 0.0978032 0.098254 0.0985662 0.0987206 0.0987919 0.0989361 0.0992214 0.099708 0.100311 0.101134 0.101672 0.102237 0.102755 0.102801 0.102184 0.100666 0.098182 0.0951442 0.0920889 0.0896307 0.0886495 0.0893245 0.0909033 0.092746 0.0944333 0.0970313 0.100109 0.102068 0.103294 0.104376 0.105334 0.105887 0.106163 0.106045 0.105681 0.10537 0.105087 0.104779 0.104227 0.103431 0.102703 0.102222 0.10188 0.101402 0.100816 0.100258 0.0997377 0.0991988 0.0990592 0.0991625 0.0990189 0.0981095 0.0970409 0.0963318 0.0953506 0.0941687 0.0927498 0.0909448 0.0886368 0.0863104 0.0841963 0.0821959 0.0801704 0.0781307 0.0764097 0.0750818 0.0740351 0.0729571 0.071842 0.070872 0.0703738 0.07003 0.0700463 0.0702733 0.0694986 0.0679863 0.0663001 0.0645869 0.0627286 0.060906 0.059177 0.0572344 0.0548262 0.0524721 0.0508328 0.049792 0.0488227 0.0478409 0.0465342 0.0454312 0.04498 0.045369 0.0458306 0.046115 0.0462438 0.0466288 0.0478661 0.0492065 0.0500308 0.0513409 0.0524911 0.0537586 0.0555965 0.0573952 0.0598316 0.0626119 0.0655187 0.0689525 0.0726591 0.0766217 0.0804225 0.0843149 0.0882451 0.0918694 0.095143 0.0985608 0.102222 0.105809 0.108992 0.112248 0.115358 0.118308 0.120972 0.123257 0.124909 0.126171 0.127065 0.127432 0.126998 0.12507 0.122998 0.121591 0.119783 0.118099 0.116719 0.115382 0.114024 0.112135 0.110004 0.107625 0.104963 0.102014 0.0987931 0.0957702 0.0928144 0.0897834 0.0868215 0.0836918 0.0803206 0.0768867 0.0735233 0.0701936 0.0668676 0.0640656 0.0616642 0.0593179 0.0568905 0.0544215 0.052051 0.050065 0.0485736 0.0474776 0.0463844 0.0449933 0.0437408 0.0423309 0.0405008 0.0379947 0.035611 0.0339347 0.0327148 0.0315816 0.030426 0.0292498 0.028042 0.026857 0.0257263 0.0247 0.0237353 0.0227731 0.0219179 0.0212447 0.0205905 0.0200249 0.0195519 0.0192002 0.0190524 0.018932 0.0188438 0.0188318 0.0188812 0.0189915 0.0188187 0.018302 0.017727 0.0173603 0.0173708 0.0174987 0.017597 0.017473 0.0171415 0.0166198 0.0160934 0.0157421 0.0155214 0.015399 0.0151983 0.0150394 0.0149347 0.0149401
0.125705 0.12629 0.12676 0.127463 0.12843 0.128699 0.128621 0.128549 0.129385 0.13141 0.133569 0.136007 0.137304 0.138565 0.139503 0.139787 0.140052 0.14021 0.139557 0.13792 0.136104 0.135608 0.135674 0.135642 0.135136 0.13423 0.132987 0.131977 0.130963 0.129047 0.127214 0.125567 0.123603 0.121471 0.119367 0.117352 0.115307 0.113162 0.111162 0.108653 0.105463 0.102376 0.0996442 0.0984429 0.0969974 0.0960914 0.0957695 0.0957175 0.095778 0.0963389 0.0966011 0.0966171 0.0963961 0.0955576 0.0932685 0.0906015 0.0883308 0.086235 0.0837387 0.0804285 0.0763792 0.0728441 0.0707158 0.0688251 0.0670905 0.0656297 0.0641095 0.062737 0.0614091 0.0602294 0.0596719 0.0597774 0.0601079 0.0599784 0.0592895 0.0582109 0.0566829 0.0554226 0.0544416 0.053451 0.0526631 0.0520396 0.0515148 0.0511452 0.0511254 0.0520897 0.0544091 0.0578636 0.0621324 0.0667432 0.0713708 0.0755725 0.0787895 0.0812389 0.0830049 0.0843383 0.085782 0.0866193 0.0873951 0.0892683 0.0912449 0.0928549 0.0943539 0.0954682 0.0960271 0.0964765 0.0970237 0.0975105 0.09778 0.0979099 0.0982166 0.0985528 0.0990616 0.0996989 0.100565 0.101233 0.102045 0.10276 0.103024 0.102717 0.101561 0.0993859 0.0965507 0.0937387 0.0914806 0.0905895 0.0912986 0.0929566 0.0949757 0.0968703 0.0994813 0.102414 0.104198 0.105245 0.106101 0.106777 0.106959 0.106864 0.106342 0.105601 0.104953 0.104355 0.103722 0.102892 0.101924 0.101013 0.10036 0.0999337 0.0994438 0.0988432 0.0983924 0.0979634 0.0974885 0.097405 0.0975236 0.0974231 0.0966705 0.095667 0.0948042 0.093789 0.0925601 0.0910717 0.0892221 0.0869835 0.084803 0.0828424 0.0809772 0.0790578 0.0771485 0.0756475 0.0745103 0.0736394 0.0727358 0.0718088 0.0709816 0.0705401 0.0701725 0.0702741 0.0706703 0.0700827 0.068716 0.0671112 0.0653871 0.0634868 0.0616752 0.0599778 0.0580276 0.0555695 0.053114 0.05133 0.0501996 0.0492531 0.0481369 0.04672 0.0455959 0.0450924 0.045448 0.0459845 0.046072 0.0459533 0.0461087 0.0470389 0.0479888 0.0484588 0.0495087 0.0505054 0.0516554 0.0534204 0.0550537 0.0572847 0.0598604 0.0626229 0.0659168 0.0694833 0.0733547 0.0770965 0.0810041 0.0848585 0.0883758 0.0915896 0.0950043 0.0986558 0.102224 0.105426 0.108758 0.111985 0.115133 0.118006 0.120571 0.122557 0.124109 0.125509 0.126383 0.126436 0.12502 0.123377 0.122276 0.120614 0.118993 0.117689 0.116431 0.115131 0.113315 0.111234 0.108824 0.106116 0.103114 0.0998201 0.0967662 0.0937895 0.0907342 0.0876543 0.0843516 0.0808266 0.0772467 0.073749 0.0703259 0.0669875 0.0641966 0.0617754 0.0593803 0.0568759 0.0543264 0.0518722 0.0497904 0.0481997 0.0469942 0.0457999 0.0444428 0.043259 0.0419196 0.0401176 0.0375549 0.0350485 0.0333 0.0320864 0.0309835 0.0298689 0.0287818 0.0276653 0.0265115 0.0253906 0.0243669 0.0234211 0.0224891 0.0216736 0.0210254 0.0203776 0.0197843 0.0192742 0.0189005 0.0187646 0.0186581 0.0185673 0.0185592 0.0186141 0.0187326 0.0185874 0.0181068 0.0175911 0.0173139 0.0173573 0.0175179 0.0177212 0.0177501 0.0175857 0.0172511 0.0169131 0.0167548 0.0167558 0.0168322 0.0167337 0.0166371 0.0165778 0.016587
0.122217 0.122495 0.12266 0.123189 0.124159 0.124493 0.124463 0.124461 0.125443 0.127811 0.130478 0.133161 0.134546 0.135936 0.137026 0.137326 0.137577 0.137863 0.137295 0.135737 0.134172 0.133865 0.134015 0.134012 0.133563 0.132811 0.13174 0.130756 0.129734 0.128077 0.126263 0.12464 0.122821 0.120853 0.118918 0.117146 0.115354 0.113476 0.111669 0.109245 0.106087 0.103055 0.100385 0.0990748 0.0975941 0.0967001 0.0963181 0.0961637 0.0961677 0.0967385 0.0969865 0.096905 0.0966448 0.0957341 0.0934674 0.0908015 0.088674 0.0866949 0.0841019 0.0807038 0.0767498 0.0734478 0.0712988 0.069474 0.0678655 0.0664273 0.0648199 0.0632895 0.0617435 0.0603886 0.0595934 0.0594858 0.0597 0.0595393 0.0588807 0.0577934 0.0562742 0.0551121 0.0539647 0.0527877 0.0518657 0.0510964 0.0504063 0.0499616 0.0499983 0.0509711 0.0533064 0.0566965 0.0608452 0.0651964 0.0696664 0.0738903 0.0772209 0.0799047 0.0819813 0.0835409 0.085055 0.0858288 0.0864942 0.0882595 0.0901263 0.0916498 0.093123 0.0942829 0.094901 0.0954267 0.0960387 0.0966281 0.0970818 0.0973543 0.0976413 0.0981058 0.0987673 0.0995026 0.10042 0.101106 0.102083 0.10307 0.103557 0.103403 0.102496 0.100713 0.0982909 0.0957684 0.0938765 0.0932247 0.0940329 0.0956772 0.0977056 0.0996462 0.102252 0.105111 0.106799 0.107727 0.108422 0.108951 0.10896 0.10846 0.107474 0.106247 0.105164 0.10414 0.103115 0.101952 0.100709 0.0995002 0.0985277 0.0978658 0.097291 0.0965866 0.0960336 0.0955963 0.0951528 0.0951277 0.0952844 0.0951387 0.0944879 0.0935817 0.0927247 0.0916331 0.0904172 0.0889117 0.0870147 0.0848133 0.0826775 0.0807336 0.0788874 0.0769737 0.0750264 0.0735245 0.0725977 0.0719304 0.0712285 0.070494 0.0698925 0.0696562 0.0694444 0.0697412 0.0703198 0.0699691 0.0688593 0.0674927 0.0659274 0.0640853 0.0622947 0.0606078 0.0586768 0.0562839 0.0538305 0.0519228 0.0506539 0.0496894 0.0485423 0.046997 0.0457745 0.0452894 0.0456467 0.0462316 0.0464352 0.046162 0.0460657 0.0467253 0.0472946 0.0474092 0.0481546 0.0489853 0.0500219 0.051694 0.0531681 0.0551568 0.0575265 0.0601348 0.0632713 0.0666841 0.0704141 0.0740553 0.0780005 0.081906 0.0853663 0.0884973 0.091792 0.0953798 0.0989381 0.102102 0.105408 0.108668 0.111878 0.114896 0.117615 0.119829 0.121672 0.12332 0.124642 0.125217 0.124341 0.12325 0.122554 0.121098 0.119516 0.118262 0.117066 0.115864 0.114138 0.112062 0.109623 0.106865 0.103792 0.10041 0.0972974 0.0942759 0.0911522 0.0879548 0.0844977 0.08087 0.0771968 0.0735767 0.0700732 0.0667371 0.0639836 0.0615618 0.0591335 0.0565823 0.0539937 0.0515098 0.0493804 0.0477376 0.0464566 0.0451607 0.0437515 0.042575 0.0412554 0.0395001 0.0369667 0.0344223 0.0325936 0.0313601 0.0302903 0.0292177 0.0281865 0.0271364 0.0260401 0.0249511 0.0239374 0.0230017 0.0221051 0.0213249 0.0206766 0.0199937 0.0193774 0.0188684 0.0184884 0.0183341 0.0182187 0.0181136 0.0181048 0.0181626 0.0182802 0.0181428 0.0176652 0.0172217 0.0170858 0.0172494 0.0175525 0.0179404 0.0181519 0.0181179 0.0179467 0.0177957 0.0177986 0.0179411 0.0181296 0.0180787 0.0179854 0.017923 0.0179225
0.117976 0.117931 0.117876 0.118312 0.119195 0.119463 0.119475 0.119689 0.120929 0.1236 0.126583 0.129343 0.130835 0.132369 0.133622 0.134027 0.134263 0.134666 0.134212 0.132748 0.131399 0.13122 0.131368 0.13136 0.130982 0.130346 0.129371 0.128438 0.127495 0.125988 0.124312 0.122696 0.120955 0.119167 0.117525 0.116006 0.114411 0.112903 0.111427 0.109259 0.106315 0.103538 0.101007 0.0996962 0.0982404 0.0973299 0.0969206 0.0967356 0.0966549 0.0972396 0.0974769 0.0973544 0.097055 0.0960525 0.0938119 0.0912021 0.0890643 0.0871374 0.084467 0.0810142 0.0771416 0.0739548 0.0718794 0.0700181 0.0685468 0.0671986 0.0655142 0.0637695 0.0620615 0.0606407 0.0596418 0.0593542 0.0594444 0.0591653 0.0584918 0.0575278 0.0560665 0.054969 0.0539048 0.0526067 0.0515576 0.0506741 0.049867 0.0493598 0.0494899 0.050559 0.0529245 0.0563251 0.0604394 0.064592 0.0687258 0.0729076 0.0762807 0.0790272 0.0812781 0.0831057 0.084825 0.0856298 0.0862695 0.0879824 0.0897873 0.0912184 0.0926451 0.093831 0.0945139 0.0951277 0.0958365 0.0964766 0.0969397 0.097263 0.0976835 0.0982154 0.0990304 0.0998629 0.100805 0.101385 0.10225 0.103264 0.103872 0.103815 0.103023 0.101447 0.0993813 0.0972685 0.0957366 0.0953795 0.0964076 0.0981306 0.100069 0.101861 0.104369 0.107135 0.108731 0.109589 0.110231 0.110666 0.110633 0.109998 0.108701 0.107123 0.105675 0.104305 0.102957 0.101401 0.0997475 0.0981099 0.0966847 0.0956368 0.0948513 0.094035 0.0933711 0.0928334 0.0923647 0.0923519 0.0925208 0.0923515 0.0917209 0.0908559 0.0900908 0.0890058 0.0877888 0.0863159 0.0844004 0.0821804 0.0800203 0.0779912 0.0760169 0.0739764 0.0719559 0.0703411 0.0693563 0.0687867 0.0682895 0.0677914 0.0674108 0.0673765 0.0674191 0.0680979 0.0690271 0.0690102 0.0682409 0.067208 0.0659528 0.0643498 0.0627083 0.0610956 0.0592266 0.0569359 0.0546409 0.0527634 0.0514087 0.0503322 0.0491647 0.0476431 0.0464321 0.0459281 0.046313 0.0469541 0.0472068 0.0470293 0.0469748 0.0475468 0.0478452 0.0476498 0.0480477 0.0484851 0.0492241 0.0507044 0.0520528 0.0538288 0.0559214 0.0583015 0.0612313 0.0644446 0.0679888 0.0714494 0.0753314 0.0792822 0.0826423 0.0856363 0.088733 0.0921176 0.0956139 0.0987669 0.102042 0.105289 0.108451 0.111412 0.11422 0.116587 0.118656 0.120641 0.122256 0.123137 0.122653 0.122021 0.121738 0.120582 0.119134 0.117937 0.116787 0.11566 0.114056 0.11203 0.109584 0.106804 0.103676 0.100207 0.0970324 0.0939606 0.0907475 0.0874946 0.0839556 0.0803108 0.0765835 0.0728425 0.0692705 0.065946 0.063245 0.0608452 0.0583953 0.0558029 0.05317 0.0506463 0.0484668 0.0467959 0.0454735 0.0441295 0.0427022 0.0415043 0.0401821 0.0384844 0.0360057 0.0334984 0.0316502 0.0303663 0.0292973 0.0282776 0.0273122 0.0263149 0.0252525 0.0241791 0.0231848 0.0222713 0.0214095 0.0206629 0.0200059 0.0193096 0.018724 0.0182659 0.0179355 0.0178229 0.0177268 0.017613 0.0175806 0.0176235 0.0177333 0.0176107 0.0171993 0.0169101 0.0169712 0.017317 0.0178025 0.0183557 0.0187217 0.0188213 0.0187602 0.0187466 0.0188839 0.0191297 0.0193705 0.0193261 0.0192329 0.0191746 0.01918
0.113906 0.113667 0.113559 0.11403 0.115005 0.115451 0.115727 0.116163 0.117565 0.120439 0.123373 0.125943 0.127461 0.129173 0.130586 0.131104 0.131318 0.13174 0.131412 0.130046 0.128893 0.128756 0.128827 0.128821 0.128564 0.128069 0.12712 0.126123 0.125197 0.123872 0.122391 0.12082 0.11908 0.117284 0.11572 0.114304 0.112906 0.111675 0.110358 0.108332 0.105736 0.10347 0.101275 0.10019 0.0989459 0.0980635 0.0976218 0.0974429 0.0973554 0.0979184 0.098136 0.0979666 0.0975826 0.096483 0.0943416 0.0918197 0.0895871 0.087562 0.0848298 0.0813477 0.0775781 0.0744894 0.0724252 0.0705767 0.0691549 0.0678959 0.0662067 0.0643636 0.0625758 0.0610643 0.0599156 0.0595036 0.0595284 0.0591433 0.0583795 0.0574475 0.0561017 0.055051 0.0540581 0.0527667 0.051568 0.0505393 0.0496421 0.0490481 0.0492026 0.050365 0.0527323 0.056081 0.0601879 0.0642888 0.0681167 0.0720178 0.0754149 0.0782245 0.0805646 0.0825235 0.0844523 0.0853776 0.0860167 0.0877172 0.0895085 0.0909155 0.0923117 0.0934733 0.0941438 0.09475 0.0955225 0.0962244 0.0967203 0.0971347 0.0977129 0.0983496 0.0992264 0.100188 0.101188 0.101744 0.102522 0.103439 0.103951 0.103882 0.10318 0.101747 0.0998608 0.0980996 0.0970334 0.0970044 0.0982268 0.100077 0.102042 0.103685 0.106041 0.10869 0.110166 0.110949 0.111574 0.112037 0.112069 0.111543 0.110199 0.108424 0.106781 0.105202 0.103568 0.10165 0.0996688 0.0977077 0.0959044 0.0944603 0.093354 0.092314 0.0914934 0.090856 0.0903275 0.0902506 0.090347 0.0901364 0.089491 0.0886407 0.0879142 0.0868869 0.0856834 0.0842213 0.0822937 0.0800045 0.0777658 0.0756432 0.0735304 0.071323 0.0691352 0.0673574 0.0661776 0.0655794 0.0652516 0.0650039 0.0649569 0.0652886 0.0656545 0.0665711 0.0677911 0.0681195 0.0677067 0.0670069 0.0660711 0.0647611 0.0633805 0.0619646 0.0602624 0.058144 0.0560654 0.0543829 0.0531056 0.0519663 0.050702 0.0491455 0.0480075 0.0476831 0.0482263 0.0488971 0.0491971 0.0490864 0.0491369 0.049806 0.0500406 0.0495724 0.0495147 0.0494577 0.0497551 0.0508035 0.0516861 0.0530424 0.0548907 0.0569763 0.0596513 0.0626361 0.0659981 0.0692782 0.0730449 0.076953 0.0801128 0.0828957 0.0857694 0.0889013 0.0922216 0.0952993 0.0985432 0.101805 0.10497 0.107838 0.110479 0.11282 0.115131 0.117435 0.119365 0.12053 0.120323 0.119962 0.120014 0.119296 0.118106 0.11698 0.115888 0.114844 0.113355 0.111433 0.10909 0.106332 0.10317 0.0995833 0.0963082 0.0931778 0.0899013 0.0866677 0.0831037 0.0794652 0.0757116 0.0718834 0.0682729 0.0649857 0.0623425 0.0599659 0.0575006 0.0548615 0.0521727 0.049567 0.0472942 0.0455651 0.0441737 0.0427673 0.0413525 0.0401649 0.0387971 0.0371382 0.0347519 0.0323136 0.0305285 0.029271 0.0281933 0.0272094 0.0263251 0.0254151 0.0244461 0.0234509 0.0225061 0.0216308 0.0208099 0.0201062 0.0194701 0.018815 0.0182869 0.0178706 0.0175707 0.0174995 0.0174492 0.0173901 0.0174028 0.0174878 0.0176729 0.0176768 0.0174233 0.0173068 0.0175102 0.0179483 0.0185006 0.0191212 0.0195836 0.0197959 0.019826 0.0198894 0.0201025 0.0204108 0.0206667 0.0206155 0.0205058 0.0204308 0.020454
0.111296 0.110984 0.110852 0.11137 0.112398 0.112977 0.113447 0.114038 0.115481 0.11848 0.12141 0.123593 0.124936 0.126742 0.128274 0.128784 0.128924 0.129229 0.128994 0.127796 0.126818 0.126671 0.12668 0.12674 0.126629 0.126282 0.125342 0.124285 0.123299 0.122001 0.120606 0.119142 0.117344 0.11546 0.113836 0.112339 0.111134 0.110207 0.109102 0.107269 0.105055 0.103356 0.101634 0.100713 0.0998253 0.0991128 0.0986814 0.0985074 0.0985035 0.0990686 0.0992801 0.0989685 0.098465 0.0973137 0.0953265 0.0929473 0.0905693 0.088386 0.0856349 0.0821819 0.0785002 0.0755334 0.0734873 0.0716811 0.0702625 0.0691018 0.067431 0.0655084 0.0637142 0.0620712 0.0607742 0.0602573 0.0602263 0.0597814 0.0589294 0.057885 0.0565544 0.0555197 0.0545351 0.0532884 0.0519172 0.0506585 0.0495657 0.0488493 0.0489386 0.0500895 0.0524167 0.055621 0.0596489 0.0637749 0.0674586 0.0709577 0.0741598 0.0770088 0.0794143 0.0814693 0.0834794 0.0844986 0.0851578 0.0868438 0.0886011 0.0899842 0.0913771 0.0925231 0.0931779 0.0937285 0.0944512 0.0951466 0.0957417 0.0963255 0.0970418 0.0977408 0.0985994 0.0996672 0.100716 0.101279 0.102079 0.103042 0.103527 0.10344 0.102825 0.101462 0.0996663 0.0980668 0.0974058 0.0977978 0.0992071 0.101172 0.103213 0.104902 0.107196 0.109744 0.111121 0.11184 0.11246 0.113021 0.113193 0.112855 0.111746 0.110133 0.108595 0.107013 0.105246 0.103188 0.10113 0.0991327 0.0972513 0.0956329 0.0943129 0.0930625 0.0920156 0.0911719 0.090464 0.0901941 0.0901385 0.0898227 0.0891543 0.0883086 0.0875786 0.0865724 0.0853253 0.0837991 0.0818158 0.0794418 0.0770958 0.0748614 0.0726355 0.0702969 0.0679157 0.0659622 0.0646109 0.0637953 0.0633281 0.0630832 0.0631905 0.0637541 0.0643764 0.0655027 0.066782 0.0671507 0.0669029 0.0663969 0.0656637 0.0645866 0.0634689 0.0623357 0.06091 0.0590399 0.057231 0.0558058 0.0547301 0.0536809 0.0524091 0.0508628 0.0497613 0.049528 0.0503316 0.0512868 0.0516681 0.0516236 0.0517378 0.0524406 0.052705 0.0520618 0.0515606 0.0510372 0.0508959 0.05148 0.0518441 0.0526016 0.0538941 0.0555512 0.0579281 0.0606946 0.063893 0.0670314 0.0706837 0.0745071 0.0774367 0.0800064 0.0826873 0.0855993 0.0886978 0.0915872 0.0947165 0.0979735 0.101175 0.104031 0.106606 0.108763 0.111028 0.11358 0.115752 0.11716 0.117297 0.117228 0.117554 0.117311 0.116567 0.115634 0.114677 0.113786 0.112453 0.11068 0.108527 0.1059 0.102752 0.0990887 0.0957293 0.0925501 0.0892531 0.0860794 0.0824846 0.0788058 0.0750198 0.0711824 0.0676164 0.0643978 0.0618274 0.0594649 0.0570082 0.0543326 0.0516035 0.0489165 0.0465668 0.0447732 0.0432919 0.0417933 0.0403082 0.0390956 0.0376688 0.0359545 0.0336539 0.0312974 0.0295888 0.0284051 0.0273745 0.0264051 0.0255784 0.0247514 0.0238737 0.0229637 0.0220894 0.0212746 0.0205188 0.0198682 0.019278 0.0186871 0.0182038 0.0178039 0.0175014 0.0174341 0.0174068 0.0173815 0.0174791 0.0176716 0.0180005 0.0181976 0.0181461 0.018194 0.0184962 0.0189827 0.0195598 0.0201839 0.0206943 0.020995 0.0211231 0.0212613 0.0215298 0.0218599 0.0221058 0.0220388 0.0219047 0.0218353 0.0218902
0.110674 0.110306 0.11015 0.11075 0.111835 0.112448 0.11293 0.113547 0.115006 0.117934 0.120909 0.122758 0.123672 0.125295 0.126787 0.127176 0.127215 0.12758 0.127458 0.126404 0.125484 0.125317 0.125367 0.125578 0.125679 0.12552 0.124646 0.123553 0.122512 0.121152 0.119692 0.118192 0.116372 0.114288 0.112489 0.110835 0.109567 0.108792 0.107821 0.106209 0.104395 0.103226 0.10208 0.101499 0.100922 0.100525 0.100204 0.100021 0.100052 0.100686 0.100845 0.100396 0.0997529 0.0986331 0.0967423 0.0944181 0.0920181 0.0895945 0.0867854 0.083419 0.0797879 0.0769396 0.075004 0.0733006 0.0720071 0.0708568 0.069297 0.0673601 0.0655442 0.0638977 0.0624453 0.0618043 0.0616591 0.0611187 0.0601403 0.058944 0.057456 0.0563546 0.0552777 0.054055 0.0525985 0.0510999 0.0497551 0.0488471 0.0487869 0.0498474 0.0521148 0.0552185 0.0590846 0.0630763 0.0667395 0.0699347 0.072796 0.0756318 0.0780953 0.0802423 0.0823465 0.0834012 0.0840645 0.0857229 0.0874393 0.0887706 0.0901259 0.0912944 0.0920016 0.0925864 0.0932982 0.0939849 0.0946854 0.0954202 0.0962371 0.0970459 0.0978834 0.0989007 0.0999391 0.100445 0.101246 0.102308 0.102909 0.10286 0.102263 0.100982 0.0992937 0.0978826 0.0975199 0.0982476 0.0998087 0.101883 0.104007 0.105762 0.108113 0.110636 0.111936 0.112602 0.113201 0.113865 0.114205 0.114048 0.113188 0.111916 0.110742 0.109409 0.107785 0.105872 0.103967 0.102147 0.100437 0.0988833 0.0975207 0.0961229 0.0948578 0.0937607 0.0928094 0.0923589 0.0921709 0.0917347 0.0909796 0.0900993 0.0893089 0.0882 0.0867927 0.0851497 0.0831129 0.0806535 0.0781975 0.0758792 0.0736004 0.0712184 0.0687285 0.0666274 0.0651312 0.0640869 0.0633432 0.062872 0.0628891 0.0634734 0.0641158 0.0652487 0.066544 0.0668767 0.0665899 0.0661 0.0654137 0.0644254 0.0634542 0.0624994 0.0612639 0.0595723 0.0579949 0.0568517 0.0560178 0.0551923 0.0540952 0.052688 0.0516663 0.0514648 0.0523617 0.0535882 0.0542674 0.0543296 0.0544692 0.0551654 0.0554088 0.0547515 0.0539519 0.0530027 0.0524346 0.0525031 0.0522734 0.0524676 0.0531665 0.0542736 0.0561449 0.0585734 0.0615781 0.0645902 0.068161 0.0719082 0.0746738 0.0770832 0.079599 0.082333 0.0852352 0.0878934 0.0908308 0.0940287 0.0972487 0.100066 0.102607 0.104709 0.106864 0.109322 0.111597 0.113196 0.11362 0.113899 0.114494 0.114663 0.114431 0.113832 0.113092 0.112413 0.111231 0.109637 0.107682 0.105271 0.102266 0.0986474 0.0953152 0.0921865 0.0889672 0.0859076 0.0823146 0.078589 0.0747654 0.0709555 0.0675209 0.0644339 0.0619371 0.0595841 0.0571652 0.0545002 0.0517566 0.0490432 0.0466586 0.044781 0.0432038 0.0416621 0.0401001 0.0387526 0.0372238 0.0353987 0.0331547 0.0309278 0.0293035 0.0281926 0.0272287 0.0262711 0.0254262 0.0245658 0.0236592 0.0227459 0.021888 0.0211015 0.0203743 0.019743 0.0191828 0.0186487 0.0181961 0.0178138 0.0175283 0.0175004 0.017544 0.0175642 0.0177188 0.0180145 0.0184503 0.0187916 0.0189083 0.0191077 0.0194983 0.020034 0.0206665 0.0213366 0.0219041 0.022256 0.02245 0.0226817 0.0230204 0.0233648 0.0235908 0.0235244 0.0233811 0.0233556 0.0234511
0.11074 0.110239 0.109971 0.110582 0.111668 0.112207 0.112653 0.113245 0.114591 0.117367 0.120124 0.121838 0.12226 0.123497 0.124887 0.125143 0.125241 0.125818 0.125795 0.124767 0.123845 0.123713 0.123889 0.12432 0.124731 0.124879 0.124252 0.12333 0.12236 0.120954 0.119409 0.117797 0.115925 0.113838 0.111829 0.109974 0.108495 0.107775 0.106924 0.105523 0.104058 0.103346 0.10262 0.102494 0.102136 0.102076 0.101986 0.101767 0.101721 0.102272 0.102337 0.101816 0.101134 0.09997 0.0980449 0.0956658 0.0932489 0.0908205 0.0878918 0.0845791 0.0809423 0.0781457 0.0763604 0.0748225 0.0737424 0.0727496 0.0711746 0.0693239 0.0675358 0.0659904 0.0644481 0.0636781 0.0633849 0.0626981 0.0616092 0.0603473 0.0587251 0.0574747 0.0562521 0.0549809 0.0535754 0.051891 0.0503041 0.0491879 0.0489424 0.0497544 0.0519091 0.0549722 0.0587168 0.0625008 0.0659462 0.0690078 0.0715443 0.0742915 0.0768178 0.0790527 0.0812643 0.0823992 0.083061 0.0846773 0.0863364 0.0876242 0.0889387 0.0900963 0.0908622 0.091529 0.0923015 0.0930355 0.0938852 0.0947967 0.0956724 0.0965448 0.097391 0.0982486 0.0992092 0.0995884 0.10022 0.101204 0.10192 0.101974 0.101405 0.100188 0.0986553 0.0974521 0.0973647 0.098353 0.100051 0.102248 0.104474 0.106291 0.108695 0.111223 0.112459 0.113059 0.113612 0.114304 0.114786 0.1148 0.114141 0.11315 0.112372 0.111399 0.110063 0.10846 0.106836 0.105279 0.103813 0.102443 0.101176 0.0998018 0.098499 0.0973029 0.0962281 0.0957295 0.0955588 0.0951171 0.0943362 0.0933905 0.0924849 0.0912322 0.0896868 0.0879355 0.085852 0.0833207 0.0808008 0.0784912 0.0762526 0.0739211 0.0714297 0.069216 0.0675658 0.066345 0.065356 0.0645709 0.0642435 0.0645626 0.0650647 0.06614 0.0674016 0.0677694 0.0675432 0.0670502 0.0663512 0.0653373 0.0643557 0.0634107 0.0621602 0.0604322 0.0588684 0.0578669 0.0572225 0.0566527 0.055822 0.0546096 0.0537168 0.0535852 0.0545539 0.0558563 0.0566724 0.0569553 0.057233 0.0578862 0.0581175 0.0575115 0.0566839 0.0554625 0.0545701 0.0542565 0.0535323 0.0531719 0.0532554 0.0538339 0.0550999 0.056857 0.0594582 0.0622526 0.0656897 0.0693186 0.0719002 0.074128 0.076475 0.0790605 0.0817983 0.0842398 0.0869622 0.090018 0.0931615 0.0958838 0.0983482 0.100426 0.102571 0.104937 0.107053 0.108652 0.109339 0.109889 0.110707 0.111122 0.111343 0.111148 0.110691 0.110243 0.109213 0.107777 0.106015 0.103833 0.101046 0.0975506 0.0943412 0.0913525 0.0882944 0.0854059 0.0818921 0.0782029 0.0744193 0.0707119 0.0674696 0.0645667 0.062191 0.0599166 0.0575955 0.0549938 0.0522568 0.0495762 0.047205 0.045246 0.0435316 0.0419552 0.040394 0.0389662 0.0373027 0.0353285 0.033072 0.0310092 0.0295283 0.028521 0.0276333 0.0266695 0.0257681 0.0248668 0.0239274 0.0230057 0.0221521 0.0213663 0.0206271 0.0199876 0.019433 0.0189426 0.0185399 0.0182088 0.0179962 0.0180494 0.0181817 0.0182742 0.0184944 0.0188831 0.0193862 0.0198348 0.0200858 0.0203968 0.0208758 0.021484 0.0221992 0.0229623 0.0236513 0.0241034 0.024328 0.0245729 0.0249306 0.0252467 0.0254426 0.0253978 0.0252498 0.0252799 0.025381
0.110078 0.109386 0.108914 0.109442 0.110511 0.111048 0.111602 0.112331 0.113547 0.1161 0.118587 0.120034 0.120238 0.121037 0.122353 0.122516 0.122672 0.123442 0.123433 0.122358 0.121446 0.121386 0.121716 0.12238 0.123099 0.12358 0.123288 0.122671 0.121921 0.120638 0.119156 0.11753 0.115564 0.113478 0.111492 0.109488 0.107857 0.107161 0.106374 0.104928 0.103373 0.102804 0.102316 0.102515 0.102489 0.102511 0.102686 0.102381 0.102226 0.102625 0.102548 0.102037 0.101403 0.100209 0.0981935 0.0957474 0.0933137 0.0909134 0.0880432 0.0847372 0.0810654 0.0782062 0.0765307 0.0751365 0.0742322 0.0734628 0.0719652 0.0701127 0.0684901 0.0670943 0.0656047 0.0647737 0.0644742 0.0638709 0.0628764 0.0616638 0.0599929 0.0586506 0.0573492 0.0559873 0.054655 0.0529002 0.0510985 0.0497501 0.0492525 0.049751 0.0516185 0.0546045 0.0582677 0.0618598 0.0650602 0.0678964 0.0701779 0.0727556 0.0753724 0.0776851 0.0800017 0.0812669 0.0820031 0.0835839 0.0851939 0.0864191 0.0877295 0.0889163 0.0897376 0.0904455 0.0912665 0.0920647 0.0930956 0.0942527 0.0952691 0.0962416 0.0971648 0.0979057 0.0987227 0.0989841 0.099442 0.10029 0.101053 0.101247 0.10079 0.099637 0.098241 0.0972469 0.0974024 0.0986055 0.100419 0.102705 0.105011 0.106842 0.109224 0.1117 0.112849 0.113354 0.113826 0.114446 0.114939 0.115065 0.114612 0.11383 0.11333 0.112687 0.111627 0.110337 0.109026 0.107759 0.106544 0.105409 0.104313 0.103163 0.102098 0.101066 0.100086 0.0996304 0.0995469 0.0992078 0.0985115 0.0975576 0.0965284 0.0951383 0.0935362 0.0917652 0.0896992 0.0871484 0.0846407 0.0823789 0.0801855 0.0779659 0.0756403 0.0734825 0.0717461 0.0703829 0.0692186 0.0681962 0.0675418 0.0674822 0.0676529 0.0685356 0.0697125 0.0700702 0.0699262 0.0695974 0.0688897 0.0677251 0.066546 0.0654256 0.0640187 0.0621545 0.060491 0.0594456 0.0588249 0.058437 0.0578862 0.0568796 0.0561556 0.0561093 0.0571431 0.0584367 0.0592542 0.0596097 0.0600409 0.0607028 0.0608023 0.0601895 0.05944 0.0582214 0.0571514 0.0565279 0.0554731 0.0547573 0.0543 0.0543287 0.0550376 0.0560549 0.0578884 0.0601933 0.0633381 0.0667477 0.0690755 0.0710803 0.073252 0.0756748 0.0782341 0.0804634 0.0829582 0.0858235 0.088808 0.0913555 0.093696 0.0957275 0.0978388 0.100176 0.102213 0.10367 0.104353 0.105118 0.106114 0.106704 0.10716 0.107319 0.107173 0.106972 0.106144 0.104939 0.103394 0.101433 0.0988871 0.0955703 0.0925372 0.0897655 0.0869315 0.0842677 0.0809137 0.0773204 0.0736383 0.070127 0.0671867 0.06456 0.0623642 0.0602363 0.0580444 0.0555364 0.0528557 0.0502656 0.0479457 0.0459589 0.0441303 0.0425563 0.0410294 0.0395794 0.0378236 0.03573 0.0334216 0.031479 0.0301582 0.029272 0.0284305 0.0274192 0.0264648 0.0255685 0.0246521 0.0237475 0.0229022 0.0221238 0.0213824 0.0207412 0.0202082 0.0197851 0.0194807 0.0192405 0.0191163 0.0192455 0.019451 0.0196348 0.0199423 0.0204225 0.0210179 0.0215961 0.0220001 0.0224308 0.0230091 0.0237266 0.0245485 0.0254126 0.0262145 0.0267765 0.0270492 0.0272544 0.0275527 0.0277922 0.027951 0.027915 0.0277477 0.0278141 0.0278911
0.107021 0.106141 0.10552 0.106039 0.10724 0.107932 0.108695 0.109688 0.111002 0.113542 0.115955 0.117285 0.117454 0.117955 0.119164 0.119404 0.119565 0.120298 0.120209 0.119129 0.118366 0.11852 0.11907 0.119995 0.120996 0.121758 0.121801 0.121609 0.121189 0.120156 0.118882 0.117395 0.115509 0.113478 0.111646 0.109627 0.107819 0.106947 0.106027 0.104503 0.102883 0.102402 0.102082 0.102527 0.102849 0.103084 0.103427 0.103066 0.102786 0.103154 0.103056 0.102599 0.102 0.100708 0.0985668 0.0959833 0.0934923 0.0910991 0.0882664 0.0849714 0.0812717 0.0783236 0.076692 0.0754176 0.0746307 0.0740161 0.072667 0.0707772 0.0692487 0.0680713 0.0667921 0.0660815 0.0657793 0.0651622 0.0641476 0.0629384 0.0612248 0.0597451 0.0583044 0.0568698 0.0555688 0.0539151 0.0519626 0.050394 0.0495842 0.0497116 0.0512508 0.0540167 0.0576041 0.0610573 0.0640326 0.0666667 0.0687752 0.0711668 0.0738589 0.0762788 0.0786813 0.080059 0.0808716 0.0824644 0.0840316 0.0851556 0.0864025 0.0875905 0.088487 0.0893035 0.0901898 0.0910617 0.0922507 0.0937021 0.0949861 0.0961754 0.0972357 0.0980408 0.0987309 0.0989093 0.099305 0.100156 0.100959 0.101206 0.100827 0.0997724 0.0984833 0.0976321 0.0979666 0.0993377 0.101242 0.103518 0.105841 0.107678 0.109937 0.112297 0.113321 0.113733 0.11413 0.114695 0.115147 0.115231 0.114811 0.114167 0.113868 0.113484 0.112591 0.111494 0.110408 0.109412 0.108457 0.107539 0.106632 0.105718 0.104903 0.104082 0.103294 0.102966 0.102947 0.102739 0.10223 0.101325 0.100179 0.098657 0.0970724 0.0953515 0.0933553 0.0909184 0.0884677 0.0862534 0.0840884 0.0819495 0.079762 0.077791 0.0762284 0.0748946 0.0736573 0.072494 0.0716336 0.0713261 0.0712415 0.0718684 0.0728264 0.0730822 0.0729102 0.072723 0.0721503 0.0709278 0.0695383 0.0681648 0.0665143 0.0644378 0.0625951 0.0614007 0.0606636 0.0603029 0.0599849 0.0591806 0.0586104 0.0586112 0.0596704 0.0609977 0.0618385 0.0622667 0.0627922 0.0635783 0.0636174 0.0628184 0.0620245 0.0608689 0.0598228 0.0589957 0.0576232 0.0566025 0.0557755 0.0553688 0.0555503 0.0559689 0.05701 0.0585544 0.0611212 0.0641553 0.0661727 0.0678844 0.0698614 0.0720748 0.0743483 0.0763296 0.0786673 0.0813256 0.0840942 0.086432 0.0886049 0.0905372 0.0925389 0.0948012 0.0967635 0.0981667 0.0987581 0.0995565 0.100695 0.101454 0.102058 0.102382 0.102436 0.102477 0.101911 0.101056 0.0997858 0.0980621 0.0957907 0.092751 0.089977 0.0874943 0.0849317 0.082528 0.0794029 0.0759412 0.0724156 0.0691738 0.0665319 0.0641362 0.0620977 0.0601114 0.0580612 0.0556568 0.0530861 0.0506382 0.048418 0.0464514 0.0445844 0.0430654 0.0416243 0.0401752 0.0383768 0.0362371 0.0339444 0.0321653 0.0310252 0.0302398 0.0293692 0.0283004 0.0273313 0.0264534 0.0255605 0.0246703 0.023842 0.0231026 0.0224214 0.0218671 0.021448 0.0211657 0.021033 0.0209577 0.020961 0.0211897 0.0214924 0.0217696 0.0221736 0.0227421 0.0234449 0.0241545 0.0247246 0.0252752 0.0259393 0.0267416 0.0276362 0.0285539 0.0293985 0.0299787 0.030236 0.0303688 0.0305828 0.0307396 0.030866 0.0308036 0.0305991 0.0306922 0.030721
