2.49853 2.69122 2.7671 1.55377 1.55377 1.84776 2.41421 1.55377 1.84776 1.95664 1.95664 4.27945 7.39104 2.49853 2.49853 2.49853 2.94225 2.7671 2.94225 2.7671 3.30144 3.14635 3.26448 3.10755 1.68179 1.55377 1.84776 1.95664 4.18154 4.13171 4.08128 2.41421 1.84776 3 3.06826 3.13503 3.20041 2.871 3.10755 3.93513 3.98742 4.1109 3.85999 3.04017 1.84776 3.01182 3.17349 7.04467 1.73205 1.55377 1.95664 5.20981 1.55377 1.41421 3.353 3.49895 5.35984 5.12969 5.08915 2.19737 2.101 2 3.77394 3.71866 3.4641 3.52338 1.84776 2.41421 2.49853 2.58009 2.94225 5.18647 6.2151 2.05977 1.95664 1.84776 3.353 3.29066 2 1.84776 1.95664 2.05977 2.28968 2.19737 1.84776 6.49717 6.57368 4.43361 4.38664 4.43361 4.08128 3.6488 3.59159 2.19737 3.47434 7.46314 7.39584 1.55377 1.18921 1.95664 5.58051 5.54328 5.01419 2.72291 2.53263 2.32685 2.101 1.84776 1.55377 1.84776 2.19737 2.19737 2.19737 1.95664 5.49665 5.45885 1.84776 1.55377 1.18921 1 4.81063 4.76738 1.84776 2.23607 2.61313 2.69122 2.72291 2.79793 2.97127 2.90073 4.20201 3.26448 3.41421 3.13503 2.90073 2.90073 2.72291 2.82843 2.64575 4.06021 2.53263 2.64575 2.64575 2.72291 2.90073 3.43925 3.43925 3.29066 3.353 3.16228 3.71866 2.72291 2.53263 3.353 3.49895 2.61313 4.1109 3.61539 3.67223 4.43361 2.72291 2.79793 2.101 3.10755 4.66132 4.20201 1.84776 2.7671 4.34735 5.45885 3.04017 2.97127 3.26448 1.84776 2.72291 2.94225 2.49853 2.41421 2.19737 1.95664 2.49853 5.71204 5.74818 2.101 2.19737 2.28968 2.37841 2.58009 2.7671 2.94225 4.18154 1.84776 4.25936 4.21045 3.2381 2.84096 2.49853 2.28968 1.95664 2.41421 2.41421 2.32685 1.55377 1.95664 1.84776 1 0 1 1 1.18921 1.55377 2.28968 2.49853 2.69122 2.871 3.04017 3.20041 3.353 3.49895 3.63904 4.61668 1.95664 1.68179 1.55377 1.84776 4.25101 3.53345 3.38899 3.07982 3.2381 2.94225 2.28968 2.19737 2.28968 2.19737 3.04017 3.10755 2.101 2 2.19737 2.101 1.55377 1.18921 1.55377 3.01182 3.17349 1.95664 2.61313 2.90073 2.32685 3.13503 1.73205 2 2 2 2 1.84776 2.79793 2.44949 1.84776 2.61313 2.69122 2.19737 2.28968 2.82843 3 2.23607 1.84776 2.19737 2.28968 2.49853 2.69122 2.871 3.04017 3.37849 3.43925 3.77394 3.88215 3.13503 2.90073 5.20299 5.24264 3.22711 3.29066 2.79793 3.06826 3.71866 4.06021 3.01182 3.17349 2.94225 1.84776 2 2.101 1.84776 1.55377 1.18921 1.55377 1.55377 1.84776 1.41421 1.95664 2.19737 1.84776 2.101 2.32685 2.53263 2.72291 2.90073 3.20041 3.353 3.7282 3.67223 2.19737 2.19737 2.19737 2.19737 2.41421 4.25101 4.36704 4.66132 4.76738 4.98994 2.871 2.05977 2.28968 2.61313 2.05977 2.28968 2.61313 2.61313 1.18921 1.55377 7.9074 7.97038 6.18168 6.2151 2.84096 1.84776 2.101 2.32685 2.53263 2.72291 2.90073 1.55377 1.55377 1.55377 3.06826 3.22711 7.24264 11.275 4.06895 3.8377 3.59159 3.44956 3.96584 4.25936 4.14031 4.01773 4.42226 4.30771 4.08998 4.03902 2.7671 2.69122 7.36779 7.33962 6.80325 6.72936 3.78335 3.6488 2.58009 3.53345 3.47434 2.61313 2.19737 2.69122 2.49853 1.95664 2.101 1.84776 1.55377 5.07227 5.03127 4.87113 4.76738 2.58009 2.49853 1.41421 2.101
2.41421 2.61313 2.94225 3.10755 1.41421 1.55377 2.61313 1.84776 1.95664 2.19737 2.05977 4.32758 7.419 2.7671 2.7671 3.17349 3.01182 3.17349 3.01182 3.50909 3.36359 3.47434 3.32732 2.05977 1.95664 1.84776 1.41421 2.19737 4.39474 4.34735 4.20201 2.61313 2.101 1.41421 3.22711 3.29066 3.353 3.41421 3.20041 4.06021 4.1109 4.16097 4.27945 3.20041 2.101 3.17349 3.32732 7.11529 2 1.84776 2.19737 5.30492 1.84776 1.41421 1.55377 1.18921 5.39835 5.282 2.19737 2.41421 2.32685 3.85077 3.90418 3.85077 3.60555 3.66254 1.84776 2.32685 2.69122 2.7671 2.94225 5.282 6.24833 2.28968 2.19737 3.55765 3.49895 3.43925 2.23607 1.84776 2.19737 2.28968 2.37841 2.58009 2.49853 6.52897 4.36704 4.25101 4.13171 4.08128 4.03022 3.43925 2.91295 2.84096 3.32732 3.26448 7.36779 7.29961 7.23079 7.1613 7.13232 3.63904 3.29066 3.04017 2.72291 2.53263 2.32685 1.73205 1.41421 2.101 2.28968 2.49853 2.28968 5.62383 5.58688 2.19737 1.95664 1.41421 1 0 1 4.93089 1.84776 1.41421 2.53263 3.20041 3.353 2.97127 3.13503 3.06826 4.31936 3.41421 3.67223 3.29066 3.22711 3.06826 2.90073 3 2.82843 4.18154 1.84776 2.82843 2.82843 2.90073 3.06826 3.58168 3.58168 3.43925 3.49895 3.31662 3.85077 2.90073 2.72291 3.49895 3.63904 2.79793 4.23078 3.75114 3.80595 4.54498 2.90073 2.97127 2.32685 4.72374 4.76738 4.31936 1.84776 2.19737 4.46088 5.54968 3.20041 3.47434 3.41421 1.84776 2.90073 3.2381 2.69122 2.49853 2.41421 2.19737 2.69122 2.871 5.83452 5.86991 2.58009 1.84776 2.58009 2.65915 2.84096 3.01182 3.17349 1.55377 1.41421 4.25936 3.96584 2.7671 2.58009 2.28968 2.19737 3.04017 2.61313 1.95664 1.84776 2.19737 1.55377 1.18921 1 1 0 1 1.95664 2.19737 2.41421 2.19737 2.41421 2.49853 2.69122 2.871 3.04017 3.20041 4.5716 4.06021 2.19737 1.95664 1.84776 4.13171 4.37517 3.01182 2.94225 2.84096 3.01182 2.58009 1.95664 1.84776 1.95664 1.84776 2.94225 1.41421 1.73205 1.55377 1.41421 1.18921 1.55377 1.41421 1.95664 3.2381 2.19737 2.28968 2.871 3.13503 3.29066 2 2.23607 2.23607 2.23607 2.23607 2.101 2.97127 2.64575 1.84776 2.19737 2.871 2.94225 2.49853 2.58009 3.16228 2.44949 2.101 1.84776 1.95664 2.19737 2.28968 2.49853 3.10755 3.26448 3.41421 3.63904 4.59032 4.69799 3.06826 1.84776 5.33716 5.37583 3.43925 2.97127 3.71866 3.85077 4.18154 3.38899 3.17349 1.84776 2.101 2.23607 2.49853 2.28968 1.84776 1.55377 1.84776 1.18921 1.55377 1.84776 2.101 1.41421 1.95664 2.19737 2.41421 2.61313 2.79793 2.97127 3.13503 3.53345 3.47434 1.84776 1.84776 1.84776 1.84776 2.101 4.08128 4.20201 4.50707 4.61668 2.7671 2.61313 1.68179 1.95664 2.19737 2.19737 1.95664 2.19737 2.19737 7.68848 7.75324 7.81746 7.88116 6.06622 6.10026 3.30144 3.44956 3.59159 2 2.23607 2.44949 2.64575 2.23607 2.44949 2.64575 2.82843 3 3.29066 7.21399 11.2933 11.2121 3.67223 3.53345 3.38899 3.2381 3.78335 4.08998 3.96584 3.8377 4.25936 4.14031 3.91327 3.85999 2.49853 2.41421 7.27118 7.24264 6.69851 6.62345 3.59159 3.44956 2.28968 3.32732 2.53263 2.32685 2.101 2.41421 2.19737 1.55377 1.18921 5.20981 5.16991 5.01419 4.91346 2.84096 2.7671 1.84776 1.41421 1.55377
1.95664 2.69122 2.871 3.26448 3.32732 2.871 2.79793 1.84776 2.19737 2.41421 2.28968 4.37517 7.44687 7.37942 3.38899 3.2381 3.38899 3.2381 3.70512 3.56762 3.67223 3.53345 2.19737 2.28968 2.19737 2.101 1.73205 1.84776 2.49853 4.55279 4.31936 2.79793 1.84776 1.73205 1.84776 3.43925 3.49895 3.55765 3.61539 3.41421 4.36704 4.27945 4.39474 3.353 2.32685 3.32732 3.47434 7.18522 2.23607 1.84776 2.41421 5.39835 1.84776 1.73205 1.84776 1.95664 5.43658 5.32106 1.95664 2.61313 4.03022 3.9785 4.03022 3.9785 3.74166 3.79661 1.55377 2.32685 2.72291 2.58009 2.7671 5.37583 6.32785 6.29503 3.75114 3.69552 3.63904 3.58168 2.44949 1.84776 2.19737 2.49853 2.69122 2.65915 6.48395 6.56061 4.25101 2.49853 2.28968 1.84776 2.61313 3.29066 3.13503 2.65915 2.58009 3.10755 4.18154 4.06021 3.93513 3.80595 7.06187 7.03248 2.79793 2.61313 2.41421 2.19737 2.19737 1.73205 1.41421 2.32685 2.49853 2.94225 5.74818 5.71204 2.49853 2.28968 1.84776 1.73205 1.41421 1 5.20981 4.97272 1.55377 1.41421 1.55377 1.84776 3.49895 3.82843 3.29066 3.22711 4.43361 3.55765 3.80595 3.85999 3.37849 3.13503 3.06826 3.16228 3 4.29945 2.101 3 3 3.06826 3.22711 3.71866 3.71866 3.58168 3.63904 3.4641 3.9785 3.06826 2.90073 3.63904 3.77394 2.97127 4.34735 3.88215 3.93513 4.65369 3.06826 3.13503 2.53263 4.82843 4.48007 4.43361 2.101 1.84776 4.5716 5.63906 3.67223 3.61539 2.19737 3.13503 3.06826 3.38899 2.7671 2.69122 2.32685 2.41421 2.871 3.04017 1.84776 5.95448 2.7671 1.73205 1.84776 2.84096 2.91295 3.07982 3.2381 1.41421 1 0 3.91327 2.84096 2.58009 2.49853 1.84776 3.20041 2.28968 2.19737 2.61313 2.41421 1.68179 1.55377 2.19737 1.95664 1.68179 1.55377 1.84776 1.55377 1.84776 1.95664 2.19737 2.28968 2.49853 2.69122 2.871 3.04017 4.06021 4.23078 3.80595 3.67223 3.61539 3.13503 4.25936 4.37517 2.7671 2.69122 2.58009 2.7671 2.28968 1.55377 1.41421 1.55377 2.7671 1 1.41421 1.18921 1.55377 1 1.84776 1.95664 1.84776 3.17349 2.41421 2.49853 2.58009 3.10755 3.43925 2.23607 2.44949 2.44949 2.44949 2.44949 2.32685 3.13503 2.82843 2.101 1.84776 2.49853 3.10755 2.69122 2.7671 3.31662 2.64575 2.72291 1.84776 1.95664 2.28968 2.49853 2.58009 2.7671 2.94225 3.47434 3.61539 3.75114 4.80324 2.19737 2.101 1.84776 5.46804 3.58168 3.63904 3.85077 4.34735 4.79276 3.53345 2.19737 2.41421 2.53263 2.44949 2.84096 2.19737 1.95664 2.19737 2.101 1.55377 1.68179 1.95664 2.19737 2.41421 1.84776 1.73205 2 2.23607 2.44949 2.64575 3.10755 3.26448 2.19737 2.41421 2.61313 2.79793 3.77394 3.90418 4.03022 4.34735 4.46088 2.49853 2.19737 2.19737 1.55377 1.84776 1.84776 1.84776 1.84776 1.84776 7.59595 7.66149 5.47454 5.56512 5.94851 5.98323 3.07982 3.2381 3.38899 3.6488 3.78335 1.84776 2.101 2.32685 2.53263 2.72291 2.72291 2.90073 3.06826 3.22711 7.18522 7.25448 11.1565 3.61539 3.10755 2.94225 2.7671 3.01182 3.59159 3.91327 3.78335 3.6488 4.08998 3.96584 3.7282 3.67223 2.19737 1.84776 7.17327 7.10323 6.5921 6.51581 3.38899 3.2381 3.17349 2.7671 2.41421 2.19737 1.73205 2.101 1.84776 5.34381 5.30492 5.15329 5.05533 3.07982 3.01182 2.19737 1.84776 2.101 1.84776
2.58009 2.28968 2.94225 3.10755 3.47434 4.23078 1.73205 1.84776 2.41421 2.61313 2.49853 4.488 4.53391 7.40743 3.44956 3.59159 3.44956 3.89129 3.7606 3.85999 3.7282 2.49853 2.41421 2.49853 2.41421 2.101 2 2.101 1.84776 4.66132 4.43361 2.19737 1.84776 2 2.101 2.19737 3.63904 3.69552 3.75114 3.88215 4.00887 4.52607 4.50707 4.61668 2.53263 3.47434 3.80595 7.25448 2.44949 1.84776 2.61313 5.49019 1.84776 2 2.101 2.19737 5.52778 5.41421 5.37583 4.20201 4.15243 4.20201 4.15243 2.101 3.87298 3.92609 1.55377 1.68179 2.61313 2.94225 3.10755 5.64796 5.73581 6.37396 3.88215 3.82843 3.77394 2.72291 2.64575 1.84776 2.19737 2.28968 2.871 3.04017 6.51581 4.25101 4.13171 2.28968 2.05977 1.95664 2.41421 2.41421 2.97127 2.79793 2.37841 2.94225 2.7671 3.04017 2.871 2.69122 3.61539 6.96102 6.7854 2.53263 2.32685 2.101 1.84776 1.55377 1.18921 2.53263 2.19737 3.10755 6.16779 2.7671 2.58009 2.19737 2.101 1.84776 1.73205 1.41421 1 5.07227 5.03127 1.41421 1.55377 1.68179 1.55377 3.88215 4.18154 4.59032 4.54498 3.80595 1.84776 3.98742 3.52338 3.58168 3.22711 3.31662 3.16228 4.41421 2.32685 3.16228 3.16228 3.22711 3.37849 3.85077 3.85077 3.71866 3.77394 3.60555 4.10225 3.22711 3.06826 3.77394 3.90418 3.13503 4.46088 4.00887 4.06021 4.75992 3.22711 3.29066 2.72291 4.93089 4.59032 2.41421 2.49853 4.63522 4.67969 5.72704 3.80595 2.49853 3.353 3.29066 3.59159 3.6488 2.94225 1.84776 2.53263 2.61313 3.04017 3.20041 2.101 6.03787 2.94225 2 2.101 3.01182 3.07982 3.2381 3.38899 1.73205 1.41421 1 3.96584 2.94225 2.7671 2.19737 3.41421 3.353 2.49853 1.84776 2.79793 2.05977 2.53263 2.32685 2.101 1.84776 1.55377 1.18921 1 1.41421 1.55377 1.84776 1.95664 2.19737 2.28968 4.27114 4.00887 3.88215 3.93513 3.75114 3.353 3.29066 3.47434 3.41421 3.30144 4.08998 4.21045 2.49853 2.41421 2.28968 2.49853 1.95664 1 1.18921 2.69122 0 1 1 1.84776 2.101 1.55377 2.19737 2.28968 3.10755 2.61313 1.84776 2.7671 2.84096 3.32732 2.44949 2.64575 2.64575 2.64575 2.64575 2.53263 3.29066 3 3.06826 2.101 3.20041 3.26448 2.871 2.94225 3.4641 3.52338 2.90073 1.84776 2.32685 2.28968 2.58009 2.7671 2.94225 3.10755 3.26448 3.41421 3.88215 4.98994 4.94826 2 2.101 5.55873 5.59587 3.77394 3.9785 4.93809 3.7282 2.49853 2.69122 2.79793 2.72291 3.07982 3.01182 2.28968 2.49853 2.41421 1.41421 1.84776 1.95664 2.05977 2.28968 2.49853 2.69122 1.84776 2.101 2.32685 2.53263 2.871 3.04017 2.97127 3.13503 3.29066 3.43925 3.58168 3.71866 4.06021 4.18154 4.29945 2.19737 1.84776 1.84776 2.101 1.84776 2.101 2.32685 2.53263 2.72291 7.50228 7.56864 5.34381 5.43658 5.82843 5.86385 2.84096 3.01182 2.7671 3.44956 3.59159 3.8377 3.96584 2.19737 2.41421 2.61313 2.79793 2.97127 1.84776 1.84776 1.84776 2.101 7.28297 11.1007 3.75114 3.61539 3.47434 3.32732 3.17349 3.01182 3.38899 3.7282 3.59159 3.44956 3.91327 3.78335 3.53345 3.47434 1.84776 2.871 7.03248 6.96102 6.48395 6.40637 3.17349 3.01182 2.41421 2.19737 2.101 1.84776 1.55377 1.18921 5.43658 5.28872 5.30492 3.38899 3.2381 2.49853 1.84776 1.41421 2.19737 2.41421
2.7671 2.84096 3.01182 3.17349 3.32732 4.34735 2 2.101 2.61313 2.79793 2.69122 1.84776 4.64288 7.43534 7.36779 3.6488 4.06895 3.94415 4.03902 3.91327 2.7671 2.69122 2.49853 2.69122 2.61313 2.53263 2.23607 2.32685 1.84776 4.76738 4.54498 2.19737 1.84776 1.73205 2.32685 2.41421 2.49853 3.82843 3.88215 4.00887 4.13171 4.84616 4.67969 4.72374 4.76738 4.81063 7.3513 7.32307 2.64575 1.84776 2.79793 5.58051 1.84776 1.41421 2.32685 2.41421 5.6694 5.75692 5.46804 4.31936 4.36704 4.31936 2.41421 2.32685 4 4.05145 1.84776 1.95664 2.05977 2.28968 1.41421 1.73205 5.69959 6.45193 4.00887 3.95687 1.84776 2.90073 2.82843 1.84776 2.19737 2.28968 1.41421 3.20041 6.68038 4.20201 2.19737 2.19737 1.95664 1.68179 2.19737 2.19737 2.19737 2.61313 2.41421 2.28968 2.37841 2.28968 2.19737 2.32685 2.41421 3.41421 6.85869 6.68038 2.53263 2.32685 2.101 1.84776 1.55377 2.72291 6.29503 6.16779 6.24833 1.55377 2.49853 2.41421 2.19737 1.73205 1.41421 1 0 1 5.12969 1.73205 1.84776 1.95664 2.19737 2.41421 4.29945 5.32106 3.98742 3.93513 1.73205 4.1109 3.66254 3.71866 3.77394 3.4641 3.52338 4.52607 2.53263 3.31662 3.52338 3.37849 3.52338 3.9785 3.9785 3.85077 3.90418 3.74166 4.22237 4.27114 3.22711 3.90418 4.03022 4.52607 4.5716 4.13171 4.18154 4.86383 3.37849 4.94826 4.98994 5.03127 4.78534 2.7671 2.19737 4.74186 5.84921 5.81369 3.93513 3.55765 3.49895 3.78335 3.7282 3.17349 2.19737 2.79793 2.72291 2.79793 3.20041 3.353 2.32685 6.12012 3.10755 2.23607 2.32685 3.17349 3.44956 3.38899 3.53345 2 1.73205 1.41421 4.08998 3.01182 2.49853 2.41421 3.55765 2.7671 2.69122 3.04017 2.97127 2.79793 2.61313 2.41421 2.19737 1.73205 1.41421 1 0 1 1.41421 1.55377 1.84776 1.95664 4.29945 4.15243 3.20041 3.26448 3.55765 3.61539 2.61313 3.13503 3.06826 3.26448 3.2381 3.07982 3.91327 4.03902 2.19737 2.101 1.95664 2.19737 1.55377 1.41421 2.61313 1 1.41421 1.41421 1.55377 2.19737 2.41421 2.49853 2.94225 3.26448 2.79793 2.101 1.84776 3.01182 3.07982 2.64575 2.82843 2.82843 2.82843 2.82843 2.90073 3.43925 3.49895 3.22711 3.29066 3.47434 3.10755 3.04017 3.10755 3.17349 3.66254 3.79661 3.13503 1.84776 2.61313 2.58009 2.65915 2.84096 1.84776 2.101 2.32685 3.93513 4.06021 5.04829 2.41421 2.32685 1.84776 5.68451 3.90418 4.10225 5.03833 1.84776 2.94225 3.04017 2.97127 3.30144 3.2381 2.58009 2.7671 2.69122 1.84776 1.95664 1.84776 2.19737 2.28968 2.37841 2.58009 2.7671 2.94225 1.84776 2.101 2.32685 2.53263 2.72291 3.04017 3.20041 3.353 3.61539 3.75114 3.88215 4.00887 1.84776 1.84776 1.84776 2.101 2.97127 3.29066 3.43925 7.20209 7.27118 7.33962 7.40743 7.47463 5.20981 5.30492 5.70582 5.742 2.58009 2.7671 2.49853 2.69122 3.01182 3.53345 3.67223 4.01773 4.14031 1.84776 2.69122 2.871 3.04017 3.20041 2.19737 2.19737 2.19737 7.31135 11.082 3.69552 3.55765 3.41421 3.26448 3.10755 2.94225 2.7671 3.17349 3.53345 3.38899 3.2381 3.7282 3.59159 3.32732 3.26448 2.69122 2.69122 6.88882 6.60511 6.37396 6.29503 2.94225 2.7671 2.101 1.84776 1.95664 1.68179 5.56512 5.52778 5.43658 3.67223 2.49853 2.28968 2.19737 1.84776 1.95664 1.84776 2.49853
6.15626 6.23695 3.07982 3.2381 3.38899 4.46088 4.41421 2.32685 2.79793 2.97127 2.871 2.101 4.74935 4.79276 7.39584 7.32793 7.25937 7.31135 7.24264 3.01182 2.94225 2.7671 2.69122 2.871 2.94225 2.72291 2.61313 2.53263 1.84776 4.87113 4.65369 1.84776 2.101 2 2.53263 2.61313 2.69122 2.7671 2.58009 2.7671 2.94225 4.46088 4.98994 5.08915 5.18647 7.44687 7.419 2.90073 2.82843 2.90073 2.97127 5.72083 1.84776 1.73205 1.84776 1.55377 1.41421 5.84313 5.55873 5.52135 4.48007 2.69122 2.61313 4.17303 4.12311 4.17303 1.84776 2.19737 2.28968 2.37841 2.58009 2.7671 5.73581 6.52897 4.13171 2.19737 1.84776 3.06826 3 2.101 2.41421 2.49853 1.18921 6.68038 6.75481 4.15243 1.84776 1.84776 1.84776 1.55377 1.95664 1.95664 1.95664 1.95664 2.19737 2.19737 1.95664 2.05977 1.95664 1.84776 2 2.101 3.20041 6.75481 6.68038 6.60511 6.52897 6.45193 6.37396 6.34139 6.37396 0 1 1.41421 1.73205 2.32685 2.101 1.84776 1.18921 1.41421 1 1.18921 5.22625 1.95664 2.101 2.32685 2.53263 2.72291 2.90073 5.46804 5.55873 4.06021 4.00887 4.23078 4.27945 3.85077 3.90418 3.4641 3.66254 4.63522 4.59032 3.4641 3.66254 3.52338 3.66254 4.10225 4.10225 3.9785 4.03022 4.08128 3.92609 4.38664 3.37849 4.03022 4.15243 4.63522 4.29945 4.25101 4.29945 4.96557 5.0071 5.04829 5.16991 5.07227 4.97272 2.49853 4.88871 4.84616 5.93407 3.82843 4.06021 3.69552 3.96584 3.91327 3.26448 3.32732 3.04017 2.97127 3.04017 2.97127 3.353 3.49895 2.53263 6.20128 3.26448 2.44949 2.53263 3.32732 3.59159 3.53345 3.67223 2.23607 2 1.73205 4.21045 3.17349 2.69122 2.7671 3.98742 2.94225 3.26448 3.20041 3.04017 2.871 2.69122 2.49853 2.101 1.84776 1.55377 1.41421 1 1.18921 1 1.41421 1.55377 4.23078 4.18154 3.22711 3.04017 3.10755 3.41421 3.47434 1.84776 2.32685 2.90073 2.97127 2.79793 2.7671 2.58009 3.7282 3.85999 1.84776 1.73205 1.55377 1.18921 1.55377 2.69122 1.41421 1.73205 1.55377 1.84776 1.95664 2.49853 2.69122 2.7671 3.10755 2.97127 3.04017 2.101 1.84776 3.2381 2.82843 3 3 3 2.90073 3.06826 2.97127 3.63904 3.37849 3.67223 3.32732 3.26448 3.04017 3.10755 3.32732 3.38899 3.85077 3.9785 3.353 2.32685 3.20041 2.84096 2.91295 3.07982 3.2381 3.38899 3.53345 4.1109 5.22625 5.18647 2 2.101 5.7718 4.03022 4.22237 5.13661 2.101 3.26448 3.20041 3.50909 3.44956 2.84096 3.01182 2.94225 2.19737 2.28968 2.19737 1.73205 1.84776 2.49853 2.58009 2.65915 2.84096 3.01182 3.17349 3.32732 3.47434 2.61313 2.79793 2.97127 2.23607 2.61313 2.79793 1.84776 1.84776 1.84776 2.101 2.32685 2.53263 2.72291 3.06826 7.09114 7.21891 7.28785 4.76738 4.87113 4.97272 5.07227 5.16991 5.52778 5.6175 2.28968 2.49853 2.19737 2.41421 2.61313 4.25101 6.34139 6.41975 6.49717 6.69851 6.77274 6.84617 6.91882 6.99071 3.26448 2.28968 2.28968 2.49853 7.33962 11.0633 3.20041 3.04017 2.871 2.69122 2.49853 2.871 2.69122 2.49853 2.94225 3.32732 3.17349 3.01182 3.53345 3.38899 3.10755 3.04017 2.49853 3.47434 6.7854 6.49717 6.26204 6.18168 2.69122 2.49853 2.28968 2.05977 5.69076 5.65425 5.56512 5.52778 2.7671 1.18921 1.55377 1.84776 1.95664 2.19737 2.28968 2.19737
2.53263 6.27006 6.34931 3.30144 3.44956 3.59159 4.52607 4.5716 2.97127 3.13503 4.76738 4.81063 4.85349 5.86385 5.77796 5.79278 5.70582 5.6694 7.31135 7.28297 7.21399 2.94225 1.84776 1.41421 3.10755 3.04017 2.79793 2 2.101 4.97272 4.75992 1.84776 2.32685 2.23607 2.101 2.79793 2.871 2.94225 3.01182 2.37841 2.58009 2.7671 2.94225 3.10755 5.14639 7.51371 3.13503 3.06826 2 3.06826 5.84313 5.75692 1.55377 2 2.101 1.84776 1.18921 5.87846 5.96291 5.68451 4.59032 4.38664 4.33917 4.29118 4.33917 4.29118 2.101 2.19737 2.49853 2.58009 2.7671 2.94225 5.82233 6.60511 6.57368 1.84776 2.101 3.22711 3.29066 2.49853 2.61313 2.69122 1.55377 6.71131 4.22237 4.10225 2.53263 2.32685 2.101 1.84776 1.84776 1.84776 1.84776 1.84776 2.101 1.84776 1.84776 1.95664 1.68179 1.55377 1.41421 1.84776 3.04017 2.871 2.69122 2.32685 2.101 1.84776 1.55377 1.18921 1 1.18921 1.55377 1.84776 2.101 2.41421 1.95664 1.68179 1.84776 1.73205 1.41421 1.55377 5.32106 2.19737 2.28968 2.19737 2.41421 1.84776 1.84776 1.84776 5.59587 5.68451 4.13171 4.18154 4.39474 3.9785 4.03022 3.60555 3.79661 3.85077 4.69799 4.65369 3.79661 3.85077 4.27114 4.22237 4.22237 4.10225 2.72291 4.20201 4.25101 4.49918 3.52338 4.15243 4.20201 4.74186 4.41421 3.29066 4.41421 5.06526 5.10598 5.30492 5.20981 1.68179 2.28968 5.03127 4.98994 6.05206 6.01774 3.95687 4.18154 3.82843 4.08998 1.84776 3.41421 3.47434 3.20041 3.26448 3.20041 2.72291 3.49895 3.63904 2.72291 6.28139 3.41421 2.79793 2.871 3.47434 3.53345 3.85999 2.53263 2.32685 2.101 4.37517 4.32758 1.84776 1.84776 1.55377 4.03902 4.16097 4.55279 3.26448 3.10755 2.94225 2.7671 2.41421 2.19737 1.95664 1.84776 1.55377 1.41421 1 0 1 4.06021 4.00887 2.49853 3.06826 2.871 2.94225 3.26448 3.32732 3.26448 2.101 2.72291 2.79793 2.61313 2.58009 2.49853 2.28968 3.53345 3.67223 1.41421 1.18921 1.55377 2.05977 2.49853 2.94225 2 2.101 2.19737 2.19737 2.28968 2.49853 2.69122 3.04017 3.20041 3.20041 2.32685 1.84776 3.38899 3 3.16228 3.16228 3.16228 3.06826 3.22711 3.13503 3.77394 3.52338 3.80595 3.47434 3.26448 3.32732 3.26448 1.84776 3.53345 3.59159 4.03022 4.15243 3.63904 2.72291 3.41421 3.07982 3.2381 3.38899 3.53345 4.23078 4.44161 4.55279 5.37583 5.33716 5.37583 5.85779 4.15243 4.33917 5.23305 2.32685 3.41421 3.70512 3.6488 3.07982 3.2381 3.17349 2.49853 2.58009 2.49853 2.101 2.19737 2.101 1.84776 2.7671 2.84096 2.91295 3.07982 3.2381 3.38899 3.53345 3.67223 3.80595 3.93513 4.06021 2.53263 1.41421 1.41421 1.41421 1.73205 2 2.23607 2.44949 2.82843 6.99071 7.12029 4.50707 4.61668 4.72374 4.5716 4.93089 5.03127 5.39835 5.49019 2.19737 2.19737 1.84776 1.84776 1.84776 4.08128 6.09443 6.17593 6.10608 6.18743 6.26772 6.34699 6.42528 6.50264 7.02028 7.13232 7.20209 7.23079 2.58009 7.36779 11.082 3.10755 2.94225 2.7671 2.41421 2.19737 2.19737 2.61313 2.41421 2.19737 2.69122 2.49853 2.94225 2.7671 3.32732 3.17349 2.871 2.69122 2.05977 3.26448 6.46521 6.38741 6.14809 6.06622 5.98323 5.89907 5.81369 5.77796 5.69076 5.65425 3.01182 1.68179 1.55377 1.84776 1.95664 2.19737 2.28968 2.49853 2.58009
6.22318 2.79793 6.38184 6.45972 3.50909 3.6488 3.78335 4.67969 4.72374 4.82843 4.87113 5.79892 5.76309 5.82843 3.91327 3.36359 3.38899 5.58051 5.54328 5.50579 7.28297 7.25448 7.22587 7.19715 7.22587 7.19715 7.16832 7.13937 7.16832 5.07227 4.86383 4.82106 2.53263 2.44949 2.32685 1.84776 3.04017 3.10755 3.17349 3.2381 2.7671 2.94225 3.10755 3.26448 5.24264 7.54788 3.29066 1.84776 2.23607 3.22711 5.87846 1.95664 1.84776 2.23607 2.32685 2.101 2.19737 1.68179 5.99755 5.7718 5.73581 4.71621 4.60897 4.49918 4.45291 1.73205 2.32685 2.41421 1.84776 1.55377 1.18921 1.55377 5.85779 5.94253 6.6493 2.101 2.32685 3.37849 3.55765 2.19737 2.79793 2.871 1.84776 6.7854 4.17303 2.64575 2.44949 2.23607 2 1.73205 1.41421 3.06826 2.90073 2.72291 2.53263 2.32685 2.101 1.84776 1.55377 1.18921 1.41421 1.55377 3.10755 2.79793 2.61313 2.41421 2 1.73205 1.41421 1 0 1 1.41421 1.73205 2.19737 2.49853 2.28968 1.95664 2.101 1.84776 1.73205 1.84776 5.41421 1.84776 2.49853 2.58009 2.49853 2.69122 1.95664 2.19737 1.84776 5.72083 5.80757 4.29945 4.50707 4.10225 4.15243 4.20201 3.79661 3.9785 4.03022 4.69799 4.03022 4.43361 4.38664 4.27114 4.33917 4.22237 2.90073 1.84776 4.36704 4.60897 4.65369 3.37849 4.31936 4.78534 4.61668 4.5716 4.52607 5.16303 5.20299 5.34381 2.05977 2.58009 5.16991 5.12969 6.16779 6.13412 2.101 4.08128 4.29945 4.25101 4.21045 3.61539 3.55765 3.61539 3.353 3.41421 2.97127 1.84776 3.63904 3.77394 2.90073 6.36049 3.67223 3.10755 2.19737 3.61539 3.67223 2.79793 2.61313 2.41421 4.53391 4.488 2.19737 1.84776 1.95664 1.41421 1.55377 1.68179 4.59806 3.32732 3.17349 3.01182 2.69122 2.49853 2.28968 2.19737 1.95664 1.84776 1.73205 1.41421 1 3.98742 3.93513 1.41421 2.28968 2.90073 2.69122 2.7671 3.10755 3.04017 3.10755 3.04017 2.53263 2.61313 2.41421 2 2.28968 1.84776 1.95664 3.53345 1 1.41421 1.73205 2.19737 2.41421 2.32685 2.53263 2.72291 2.41421 2.49853 2.69122 2.58009 2.7671 1.84776 3.26448 3.353 3.41421 2.61313 3.53345 3.16228 3.31662 3.4641 3.31662 3.22711 3.37849 3.29066 3.90418 3.66254 3.93513 3.61539 3.41421 3.47434 2 2.101 1.84776 3.7282 3.78335 4.20201 3.69552 3.82843 3.95687 4.08128 3.91327 4.03902 4.16097 4.27945 5.03127 5.34381 5.43658 5.52778 5.46804 5.94253 4.27114 4.45291 5.32774 3.61539 3.55765 3.8377 3.30144 3.44956 3.38899 2.7671 2.84096 2.7671 2.41421 2.49853 2.41421 1.73205 2.101 2.19737 3.01182 3.07982 3.14635 3.30144 3.44956 3.59159 4.16097 4.27945 4.55279 4.1109 4.23078 4.34735 1.84776 1.84776 2.101 2.32685 2.53263 2.72291 6.88882 7.02028 4.34735 4.46088 4.29945 4.41421 4.78534 4.88871 5.26573 5.35984 1.84776 1.84776 1.84776 2.101 2.32685 3.90418 5.97728 6.06036 5.98916 6.07207 1.84776 2.101 1.41421 1.41421 6.53441 6.61048 6.68569 6.76007 7.29961 7.32793 7.39584 11.1007 11.0556 4.03022 2.53263 2.32685 2.101 1.84776 1.84776 2.32685 2.101 1.84776 2.41421 2.19737 2.69122 2.49853 3.10755 2.94225 2.61313 2.41421 3.10755 2.79793 6.3549 6.27573 6.19554 6.11431 6.03198 5.94851 5.86385 5.77796 3.2381 2.05977 1.95664 1.84776 1.73205 2.19737 2.28968 2.49853 2.58009 2.7671
6.25637 6.33578 3.04017 6.4917 3.6488 3.70512 3.8377 3.96584 5.8198 5.7841 5.74818 5.71204 4.42226 4.37517 4.46088 3.7282 3.14635 3.17349 3.01182 5.41421 5.37583 5.33716 5.29821 5.25898 5.37583 5.33716 5.37583 5.41421 7.23773 7.26629 7.29474 7.09322 7.12235 7.03458 2.53263 1.84776 2.19737 3.26448 3.32732 3.38899 3.44956 1.95664 2.19737 2.41421 2.61313 7.57527 3.43925 3.37849 3.31662 3.37849 5.96291 2.32685 1.84776 2.44949 2.53263 2.61313 2.41421 2.49853 6.08034 6.16203 5.99162 4.75992 2.05977 1.95664 1.84776 2 2.53263 2.61313 2.101 2.19737 1.55377 1.68179 1.95664 5.97728 6.72408 2.32685 2.53263 3.52338 3.69552 1.84776 2.97127 3.04017 1.84776 6.85869 4.22237 1.84776 1.84776 1.84776 2.101 1.84776 3.29066 3.13503 2.82843 2.64575 2.64575 2.44949 2.23607 2 1.73205 1.41421 1 3.53345 3.17349 2.871 2.69122 2.32685 2.101 1.55377 1.18921 1.41421 1 1.18921 1.55377 1.84776 2.101 2.32685 2.49853 2.41421 2.32685 2.101 2 5.54328 5.50579 1.84776 2.19737 2.7671 2.84096 2.871 2.05977 2.28968 1.95664 1.95664 5.84313 5.99755 4.61668 4.22237 4.27114 4.31936 3.92609 2.19737 4.15243 4.80324 4.59032 4.54498 4.43361 4.38664 4.45291 4.33917 4.38664 2.101 4.48007 4.52607 4.75992 3.52338 1.84776 4.88871 4.93089 4.67969 4.63522 5.25898 5.29821 5.38243 2.84096 5.30492 5.26573 6.28139 6.24833 1.84776 2.32685 4.20201 4.25101 4.36704 4.32758 3.75114 3.80595 3.75114 3.61539 3.55765 2.19737 2.101 3.77394 4.00887 3.06826 6.43862 3.91327 2.49853 3.80595 3.85999 3.04017 2.871 2.69122 4.68728 4.64288 2.49853 2.41421 2.28968 2.19737 1.41421 1.84776 1.95664 4.64288 3.38899 3.2381 2.94225 2.7671 2.58009 2.49853 2.28968 2.19737 2.101 1.84776 1.55377 1.41421 3.93513 1.18921 1.55377 2.05977 2.72291 2.49853 2.58009 2.49853 2.871 2.79793 2.871 2.32685 2.41421 2.19737 1.73205 1.84776 1.55377 1.68179 3.38899 0 1 1.41421 1.73205 2 2.23607 2.23607 2.64575 2.82843 3 2.7671 2.94225 2.84096 3.01182 3.32732 3.47434 3.55765 2.94225 3.67223 3.31662 3.37849 3.60555 3.4641 3.37849 3.52338 3.43925 4.03022 3.79661 4.06021 3.75114 3.55765 3.61539 2.23607 2.32685 3.80595 3.85999 3.91327 4.31936 3.82843 3.95687 4.08128 4.20201 4.31936 4.43361 4.63522 4.88871 5.20981 3.67223 2.19737 5.49019 5.58051 6.09443 4.38664 4.56382 5.42077 3.75114 4.01773 4.06895 3.6488 3.59159 3.01182 3.07982 3.01182 2.69122 2.7671 2.69122 2.101 2.19737 2.101 2.41421 2.49853 3.2381 3.38899 3.53345 3.85999 3.98742 4.27945 2.79793 4.50707 6.54752 6.62345 6.39297 6.47071 6.54752 6.62345 6.69851 6.77274 6.84617 6.91882 4.18154 4.29945 4.41421 4.52607 4.63522 4.74186 5.12969 5.22625 2.97127 3.13503 3.29066 3.43925 3.58168 3.71866 5.85779 5.94253 5.86991 5.95448 1.84776 2.94225 3.2381 3.38899 1.84776 1.84776 2.28968 1.95664 6.79063 6.86387 7.39584 7.46314 7.52984 10.9615 3.9785 3.85077 3.71866 3.58168 3.43925 3.29066 3.13503 2.97127 2.79793 2.61313 2.41421 2.19737 2.41421 2.19737 2.871 2.69122 2.32685 2.61313 2.871 2.53263 2.32685 2.101 1.84776 1.84776 2.94225 2.7671 2.58009 2.37841 1.55377 2.19737 2.28968 2.19737 1.84776 2.49853 2.58009 2.7671 2.84096
2.94225 6.36839 6.44642 6.52352 6.59972 3.8377 3.89129 5.79892 5.76309 5.16018 5.11988 1.84776 4.30771 4.25936 4.21045 3.80595 3.53345 2.91295 2.84096 2.7671 2.49853 2.41421 1.84776 3 3.06826 2.53263 2.32685 5.32106 5.35984 5.39835 5.43658 5.47454 5.56512 7.16336 7.13439 7.16336 2.19737 2.49853 3.47434 3.53345 3.59159 3.7282 2.41421 2.61313 2.79793 7.64099 7.70615 3.52338 3.4641 6.08034 6.09443 2.19737 1.73205 2.64575 2.72291 2.79793 2.97127 3.13503 3.29066 6.33578 6.02609 2.37841 2.28968 2.19737 1.84776 2.23607 2.72291 2.79793 2.32685 2.41421 2 2.23607 2.44949 6.15626 6.79803 1.84776 3.71866 3.66254 3.82843 1.84776 3.13503 3.20041 1.84776 6.93121 4.27114 2.41421 2.19737 2.41421 2.19737 3.49895 3.353 3.06826 2.90073 2.90073 2.72291 2.23607 2 1.73205 1.41421 1 0 3.38899 2.94225 2.7671 2.58009 2.19737 1.95664 1.68179 1.84776 1.73205 1.41421 1.55377 1.68179 1.95664 2.19737 1 1.41421 2.61313 2.53263 2.32685 2.23607 5.63275 2.19737 2.101 1.84776 2.49853 3.01182 3.04017 3.10755 2.49853 2.19737 1.18921 1.55377 5.96291 6.22888 6.30864 6.45193 4.43361 4.05145 4.10225 4.27114 4.84616 4.69799 4.59032 4.54498 1.84776 4.56382 4.60897 4.49918 4.54498 2.41421 4.63522 4.86383 3.66254 1.84776 2.19737 5.03127 4.78534 4.74186 5.35321 5.39176 5.47454 5.43658 5.39835 6.39297 6.36049 2.19737 1.84776 6.26204 6.22888 6.26204 6.53441 6.50264 6.47071 3.93513 3.80595 3.75114 2.49853 2.41421 2.32685 3.90418 4.13171 3.353 6.51581 4.03902 3.98742 4.03902 3.26448 3.10755 2.94225 2.871 4.79276 1.84776 2.69122 2.61313 2.49853 1.84776 1.95664 2.101 2.19737 4.74935 3.44956 3.17349 3.01182 2.84096 2.7671 2.69122 2.49853 2.41421 2.19737 1.95664 1.84776 4.1109 3.88215 1.55377 1.18921 1.55377 2.53263 2.41421 2.19737 2.28968 2.19737 2.61313 2.69122 2.61313 2.19737 1.95664 1.84776 1.55377 1.18921 1.55377 3.32732 1 1.41421 1.55377 1.55377 1.84776 2.101 2.32685 2.53263 2.72291 3.06826 3.22711 3.01182 3.17349 3.07982 3.2381 3.53345 3.98742 3.10755 3.80595 3.85999 3.52338 3.74166 3.87298 3.52338 3.66254 3.58168 4.15243 3.92609 4.18154 3.88215 3.69552 3.75114 2.61313 2.53263 3.93513 4.65369 4.54498 4.43361 1.18921 1.55377 1.84776 2.101 2.32685 2.53263 2.97127 3.47434 3.47434 1.84776 1.84776 1.84776 2.101 6.06036 4.49918 4.67209 5.51224 3.88215 4.23917 3.8377 3.78335 3.2381 3.30144 3.2381 2.94225 3.01182 2.94225 2.41421 2.49853 2.41421 1.95664 1.84776 2.69122 2.7671 2.94225 3.10755 3.26448 2.32685 2.53263 1.84776 6.43862 6.51581 2.84096 3.01182 3.17349 3.32732 3.47434 3.61539 3.75114 3.88215 4.00887 4.13171 4.5716 4.67969 4.78534 4.88871 4.98994 5.08915 2.72291 2.90073 3.06826 3.22711 3.37849 3.52338 5.73581 5.82233 5.74818 5.83452 2.49853 2.69122 3.01182 3.04017 3.44956 3.59159 3.7282 4.03902 4.16097 4.21045 6.89398 6.96613 7.49084 7.55729 10.9426 3.92609 3.79661 3.66254 3.52338 3.37849 3.22711 3.06826 2.90073 2.72291 2.53263 2.32685 2.101 1.84776 1.84776 1.84776 2.61313 2.41421 2 2.32685 2.101 1.84776 1.84776 2.19737 3.17349 3.01182 2.84096 2.7671 1.95664 1.84776 1.95664 2.49853 2.41421 2.101 2.19737 2.7671 2.84096 3.01182
3.01182 3.17349 3.32732 3.47434 3.61539 3.75114 5.74818 5.71204 5.13661 5.09613 5.02128 4.97986 1.84776 4.14031 4.08998 3.6488 3.61539 3.32732 2.84096 2.58009 2.49853 2.19737 2.101 2.82843 2.90073 2.32685 2.101 2.19737 2.7671 2.84096 4.50707 4.61668 5.50579 5.54328 5.58051 7.23282 7.2614 7.28987 7.31822 3.67223 3.7282 3.78335 1.55377 1.84776 1.84776 7.66805 7.73298 3.79661 4.08998 4.03902 6.22318 6.14231 6.06036 6.14231 2.90073 2.97127 3.13503 3.29066 3.43925 6.41421 6.06036 2.58009 2.49853 2.19737 2.53263 2.44949 2.90073 2.97127 2.53263 2.61313 1.18921 1.55377 1.84776 6.18981 6.87119 3.90418 3.85077 4.00887 3.95687 1.84776 3.29066 3.353 6.97334 7.00297 4.31936 2.871 2.69122 2.49853 3.69552 3.55765 3.29066 3.13503 3.13503 2.97127 2.53263 2.32685 2.101 1.84776 1.55377 1.18921 1 3.32732 2.19737 1.73205 2.49853 2.28968 2.05977 1.95664 2.101 1.84776 1.95664 1.84776 1.95664 2.05977 2.28968 0 1 1.55377 1.84776 2.53263 5.75692 5.79278 2.41421 2 2.101 1.84776 3.17349 3.2381 3.47434 2.94225 2.41421 1.55377 1.18921 1.55377 1.84776 1.95664 6.41975 6.49717 6.63639 6.71131 4.38664 4.94826 4.84616 4.69799 2.19737 1.84776 1.73205 4.71621 4.75992 4.65369 2.61313 4.74186 4.96557 3.79661 5.04829 5.08915 5.12969 4.88871 4.84616 4.89597 4.85349 5.56512 5.52778 6.50264 6.47071 2.49853 1.84776 6.37396 6.34139 4.31936 4.27114 4.22237 4.27114 6.54752 6.57908 6.61048 2.49853 2.69122 2.61313 2.53263 4.03022 4.34735 3.49895 6.5921 4.16097 4.21045 3.47434 3.32732 3.17349 3.10755 3.04017 4.89597 2.94225 2.871 2.79793 2.69122 2.101 2.19737 2.32685 4.81063 4.85349 3.59159 3.2381 3.07982 3.01182 2.94225 2.7671 2.69122 2.49853 2.28968 2.19737 4.27945 4.06021 1.73205 1.41421 1.55377 1.18921 2.32685 2.101 1.95664 2.19737 1.95664 2.41421 2.32685 2.41421 1.95664 1.41421 1.55377 1.68179 1.95664 2.19737 3.47434 3.53345 1.55377 1.84776 1.95664 1.95664 2.19737 2.101 2.32685 2.53263 2.97127 3.29066 3.43925 3.2381 3.38899 3.38899 3.59159 4.1109 1.55377 1.41421 3.98742 4.03902 3.71866 4 3.66254 3.79661 3.71866 4.27114 4.05145 4.06021 4.00887 3.82843 3.88215 2.79793 2.23607 4.06021 4.75992 1.41421 1.41421 1.55377 1.84776 2.101 2.32685 2.53263 2.72291 3.26448 3.26448 1.84776 3.20041 3.353 3.49895 3.63904 6.02609 6.52897 5.63906 5.60221 4.40281 4.51495 3.96584 3.44956 3.50909 3.44956 3.17349 3.2381 3.17349 2.69122 2.7671 2.69122 2.28968 2.19737 2.41421 2.19737 1.55377 5.9196 6.00347 6.08618 6.16779 6.24833 6.32785 6.40637 2.58009 2.7671 2.7671 2.94225 3.10755 3.41421 3.55765 3.69552 3.82843 3.95687 4.41421 4.52607 2.101 2.32685 2.53263 2.72291 2.90073 3.06826 3.22711 3.37849 3.52338 5.52135 5.61117 5.69959 5.62383 5.71204 2.19737 2.41421 2.61313 2.79793 2.97127 3.13503 3.29066 3.43925 3.58168 3.71866 3.85077 4.37517 6.99579 7.0669 10.9693 10.9236 3.31662 4.62755 4.51821 4.40616 4.29118 4.17303 4.05145 3.92609 3.79661 3.66254 3.52338 3.37849 3.22711 3.06826 2.90073 2.72291 2.53263 2.32685 2.101 1.84776 2.19737 2.49853 3.38899 3.2381 3.07982 3.01182 2.41421 2.49853 2.28968 2.19737 2.69122 2.61313 2.53263 2.19737 2.49853 3.01182 2.94225
2.69122 2.871 3.04017 3.20041 3.67223 3.80595 5.81369 3.89129 3.8377 4.99706 4.95544 4.87842 4.83578 4.01773 3.96584 3.50909 3.44956 3.32732 3.10755 2.58009 2.28968 2.19737 1.84776 2.64575 2.72291 2.101 1.84776 2.49853 4.29945 4.34735 4.46088 4.41421 4.59032 2.72291 5.49019 5.52778 5.56512 5.60221 7.38623 7.41421 7.44209 7.46987 7.49755 7.56394 7.62976 7.69501 6.30864 3.66254 3.60555 3.91327 3.85999 3.80595 3.75114 6.17593 6.14231 6.17593 6.20938 6.28938 1.84776 6.44642 6.14231 6.15626 2.49853 2.79793 2.72291 2.79793 3.06826 3.13503 2.72291 2.79793 2.871 1.68179 1.95664 6.22318 6.94357 6.91368 4.18154 4.13171 2.19737 2.101 3.43925 7.01521 7.04467 4.48007 4.36704 2.94225 2.7671 3.88215 3.75114 3.49895 3.353 3.353 3.20041 2.79793 2.61313 2.41421 2.19737 1.95664 1.84776 1.55377 3.53345 3.26448 2.101 1.84776 1.55377 1.18921 1.95664 2.19737 2.871 2.28968 2.19737 1.95664 2.19737 2.28968 1.41421 1 1 1.41421 1.55377 1.84776 5.91359 5.87846 5.84313 5.80757 2.32685 1.84776 2.19737 3.38899 3.80595 2.69122 1.73205 1.84776 1.55377 1.18921 1.55377 1.84776 1.41421 1.95664 2.19737 6.68038 6.82843 6.96102 4.94826 4.90623 4.86383 2.101 2 1.84776 4.86383 4.75992 2.79793 4.84616 5.06526 5.10598 5.14639 5.13661 5.03833 4.93809 4.83578 4.79276 4.74935 4.70554 6.61048 6.57908 2.7671 1.84776 6.48395 6.45193 4.38664 4.27114 1.18921 3.79661 3.90418 3.95687 4.08128 6.68569 6.65464 6.62345 2.79793 1.84776 4.15243 4.46088 6.69851 6.66752 4.27945 3.67223 3.61539 3.38899 3.32732 1.84776 3.20041 4.99706 3.10755 3.04017 3.10755 2.871 2.32685 2.41421 2.53263 4.91346 3.78335 3.7282 3.30144 3.2381 3.17349 3.01182 2.94225 2.7671 2.58009 4.55279 4.44161 4.23078 2.101 1.84776 1.95664 1.84776 1.84776 1.55377 1.84776 1.55377 1.55377 1.84776 1.55377 2.101 2.19737 1.68179 1.55377 1.18921 1.55377 1.84776 2.28968 2.49853 3.67223 1.84776 1.95664 2.19737 2.19737 2.28968 2.49853 1.84776 2.61313 2.79793 3.20041 3.58168 3.63904 3.44956 3.59159 3.7282 4.16097 1.55377 1.41421 1.84776 4.16097 4.21045 4.12311 3.79661 3.92609 4.43361 4.38664 4.17303 4.18154 2.97127 3.95687 4.00887 2.97127 2.44949 4.18154 4.80324 1.18921 1.41421 1.55377 1.84776 2.101 2.32685 2.53263 2.871 3.04017 2.79793 2.97127 3.13503 3.91327 4.14031 4.25936 4.37517 6.49717 6.57368 5.97482 6.05793 4.14031 3.6488 3.70512 3.6488 3.38899 3.44956 3.38899 2.94225 3.01182 2.94225 2.58009 2.49853 2.69122 6.03787 6.00347 5.9196 5.95448 1.18921 1.55377 1.84776 1.95664 2.05977 2.28968 2.49853 2.49853 2.69122 2.871 3.20041 3.353 3.69552 3.82843 4.13171 4.25101 4.29945 1.55377 1.84776 2.101 2.32685 4.84616 4.94826 5.04829 5.14639 5.24264 5.33716 5.43004 5.40492 5.49665 5.58688 1.84776 2.101 2.32685 2.32685 2.53263 2.72291 2.90073 3.06826 3.22711 1.84776 1.84776 3.79661 3.92609 4.05145 6.79803 10.9882 4.88144 4.77791 4.67209 4.56382 4.45291 4.33917 4.22237 4.10225 3.9785 3.85077 3.71866 3.58168 3.43925 3.29066 3.13503 2.97127 2.79793 2.61313 2.41421 2.19737 2.49853 2.7671 3.59159 3.44956 3.30144 3.2381 1.84776 1.95664 2.69122 2.7671 2.58009 3.01182 2.94225 2.72291 2.79793 2.49853 3.26448 4.59806
2.41421 2.19737 2.41421 3.47434 3.61539 5.76309 5.72704 3.98742 3.70512 3.6488 4.85349 4.81063 4.73126 4.01773 3.91327 3.6488 3.30144 3.2381 3.10755 2.871 2.28968 1.95664 1.84776 2.44949 2.53263 1.84776 2.19737 4.13171 4.18154 4.13171 4.25101 4.29945 3.66254 2.53263 2.61313 3.353 3.41421 5.51224 5.65425 5.79278 5.82843 5.86385 5.89907 5.93407 5.96887 6.19554 6.22888 3.52338 3.4641 3.67223 2.58009 2.49853 3.61539 3.55765 3.61539 3.67223 3.7282 6.32223 6.40083 6.47847 6.55519 6.18981 3.04017 2.97127 3.04017 3.29066 3.22711 3.29066 2.90073 2.97127 3.04017 3.10755 2.19737 6.30301 6.44642 6.98563 7.07401 2.49853 2.41421 1.84776 1.41421 7.08613 4.63522 4.52607 3.17349 3.01182 4.06021 3.93513 3.69552 3.55765 3.55765 3.41421 3.04017 2.871 2.79793 2.61313 2.41421 2.19737 1.95664 3.7282 3.47434 2.53263 2.32685 2.101 1.84776 1.55377 1.41421 1.41421 3.04017 3.20041 2.41421 2.49853 2.58009 1.73205 1.41421 1 0 1 1.41421 2.101 2.44949 2.53263 2.72291 5.89304 5.92808 5.96291 2.19737 3.61539 3.93513 2.101 2.19737 2.28968 1.84776 1.55377 1.18921 1.55377 1.55377 1.84776 1.73205 2 2.41421 6.99071 7.06187 7.13232 4.96557 4.92368 2.23607 2.101 4.96557 4.86383 2.97127 4.94826 5.16303 5.20299 5.19332 5.09613 3.96584 3.8377 3.70512 3.56762 1.55377 4.59806 4.64288 6.65464 6.62345 6.5921 6.56061 4.38664 4.33917 1.73205 1.41421 3.66254 3.43925 2.44949 3.95687 3.93513 3.98742 6.69851 6.66752 4.31936 4.27114 6.80325 6.77274 4.44161 4.39474 3.80595 3.59159 3.53345 2.19737 3.41421 3.353 5.09613 3.26448 3.32732 3.10755 2.61313 2.53263 2.79793 2.72291 5.01419 3.91327 3.85999 3.44956 3.38899 3.2381 3.17349 3.01182 2.84096 4.70554 4.59806 2.7671 2.69122 2.19737 1.68179 2.19737 2.19737 1.95664 1.41421 1.41421 1.41421 2.101 1.84776 1.55377 1.84776 1.95664 1.84776 1.55377 1.84776 2.101 2.49853 2.19737 2.58009 3.53345 2.101 2.19737 2.41421 2.28968 2.49853 2.58009 2.7671 2.19737 2.871 3.353 3.58168 3.77394 3.82843 3.6488 3.78335 4.27945 1.84776 1.95664 1.84776 2.19737 4.32758 4.24264 4.29118 4.05145 4.54498 4.33917 4.29118 4.29945 3.13503 4.08128 4.13171 3.13503 4.25101 4.29945 4.84616 1.55377 1.41421 1.55377 1.18921 1.55377 1.84776 2.101 2.32685 2.53263 2.72291 3.47434 3.7282 3.96584 3.2381 2.19737 2.41421 2.61313 6.54209 6.61808 6.13991 6.10608 3.89129 3.8377 3.59159 3.6488 3.59159 3.17349 3.2381 3.17349 2.84096 2.7671 2.94225 6.15387 6.12012 1.41421 1 0 1 1.68179 1.55377 1.68179 1.95664 2.19737 2.19737 2.41421 2.61313 2.97127 3.13503 3.49895 3.75114 3.82843 3.95687 1.95664 1.55377 1.84776 4.48007 4.59032 4.69799 4.80324 4.77483 4.87842 4.97986 5.07927 5.17677 5.27247 5.36647 3.49895 3.63904 3.77394 1.73205 2 2.23607 2.44949 2.64575 2.82843 3 1.41421 1.73205 2.19737 2.41421 2.61313 1.84776 6.82843 11.007 4.92368 4.90623 4.71621 4.60897 1.84776 3.79661 3.66254 3.52338 3.37849 3.22711 3.06826 2.90073 2.72291 2.53263 2.32685 2.101 1.84776 1.84776 1.84776 2.7671 3.01182 2.84096 3.6488 3.50909 3.44956 1.84776 1.73205 2.19737 2.28968 2.94225 2.7671 2.84096 3.2381 3.38899 2.97127 1.55377 3.32732 4.85349
1.84776 2.101 1.73205 3.41421 5.76309 5.67567 3.30144 3.85999 3.80595 3.50909 3.44956 4.70554 4.62437 4.19003 3.8377 3.7282 3.44956 3.07982 3.01182 2.871 2.61313 1.95664 1.84776 2.23607 2.32685 1.84776 2.19737 4.00887 3.95687 4.08128 3.58168 3.29066 3.52338 2.32685 3.13503 3.20041 3.47434 3.53345 3.75114 3.49895 2.79793 2.871 1.84776 4.03902 4.36704 4.41421 6.14809 3.37849 3.31662 3.53345 2.94225 2.28968 2.19737 1.41421 1.84776 1.95664 3.59159 3.7282 3.85999 6.51036 6.58671 6.27006 3.20041 3.55765 3.49895 3.43925 3.49895 3.43925 2.32685 3.13503 3.20041 3.26448 3.32732 2.28968 6.52352 6.59972 7.14434 7.11529 2.19737 1.84776 7.12734 7.15634 4.67969 3.17349 3.01182 4.23078 4.1109 3.88215 3.75114 3.75114 3.61539 3.26448 3.20041 3.04017 2.871 2.19737 2.49853 2.28968 3.91327 3.67223 2.79793 2.72291 2.53263 2.32685 2.101 1.84776 1.73205 1.18921 1.55377 3.26448 2.61313 2.84096 2.101 1.84776 1.41421 1.41421 1 1.41421 1.73205 2 1.41421 1 2.90073 2.97127 3.13503 6.04618 6.08034 6.16203 6.3549 6.32223 6.3549 2.19737 1.95664 1.84776 1.55377 1.84776 1.18921 1.55377 1.84776 2.101 2.49853 2.19737 1.84776 7.10323 7.23079 5.02421 4.98281 5.02421 5.06526 4.96557 3.13503 5.04829 5.25898 5.29821 5.15329 1.84776 2.7671 3.78335 3.6488 3.50909 3.36359 3.30144 4.44161 4.25936 4.21045 4.16097 4.1109 4.06021 3.4641 3.31662 1.41421 3.52338 3.29066 2.23607 2.19737 2.49853 3.85999 3.91327 6.74209 6.71131 6.90641 6.87636 4.59806 4.55279 4.50707 3.78335 3.7282 3.67223 3.61539 3.55765 5.28872 5.19332 5.23305 5.19332 5.20981 5.11294 5.07227 5.11294 5.15329 5.11294 4.03902 4.08998 3.59159 3.44956 3.38899 3.2381 3.07982 4.85349 4.66132 3.01182 2.94225 2.49853 2.28968 1.55377 2.871 2.28968 1.84776 1.55377 2 2.53263 2.19737 1.55377 1.18921 1.55377 1.68179 1.55377 1.18921 1.55377 1.84776 2.41421 2.7671 2.94225 3.59159 2.32685 2.41421 2.61313 1.55377 2.58009 2.7671 2.84096 3.01182 2.94225 3.49895 3.71866 1.84776 3.95687 3.78335 4.44161 4.39474 1.41421 2.19737 2.28968 2.19737 4.50707 4.488 4.40616 4.17303 4.65369 4.45291 4.40616 4.41421 3.29066 4.20201 4.25101 3.29066 4.46088 4.98994 4.94826 1.84776 1.95664 1.84776 1.55377 1.68179 1.95664 2.19737 2.41421 2.61313 3.26448 3.53345 3.07982 3.01182 1.84776 2.101 2.32685 3.26448 3.41421 6.81585 6.88882 6.25401 6.22081 3.78335 3.8377 3.78335 3.38899 3.44956 3.38899 6.18743 6.15387 6.34699 6.26772 6.23459 1.84776 1.55377 1.18921 1 1.18921 1 1.18921 1.55377 1.84776 1.84776 2.101 2.53263 2.72291 2.90073 3.29066 3.55765 3.63904 2.19737 1.55377 1.55377 4.20201 4.31936 4.43361 4.46884 4.51495 4.62437 4.73126 2.41421 2.61313 2.79793 2.97127 3.13503 3.29066 3.43925 3.58168 3.82843 3.95687 4.08128 1.55377 1.84776 2.101 1.84776 1.84776 2.101 2.32685 6.49717 6.57368 6.71131 6.7854 6.85869 11.0633 5.04829 4.86383 4.22237 4.10225 3.9785 3.85077 3.71866 3.58168 2.32685 2.101 1.84776 1.84776 1.84776 2.101 1.84776 1.84776 1.55377 2.19737 3.01182 2.84096 3.07982 2.91295 3.78335 3.6488 1.84776 2.101 2.19737 2.101 2.49853 3.2381 2.94225 3.01182 2.84096 3.6488 3.13503 3.20041 1.95664 4.89597
3.01182 1.84776 3.32732 3.47434 5.72704 4.99706 3.36359 3.07982 3.67223 3.61539 3.30144 4.59806 4.51495 4.06895 4.01773 3.6488 3.53345 3.2381 2.84096 2.7671 2.61313 2.19737 1.84776 2 2.101 1.84776 3.82843 3.88215 3.82843 3.37849 1.84776 3.13503 3.37849 2.90073 2.97127 3.04017 3.32732 3.55765 3.61539 3.353 2.61313 2.69122 3.85999 3.91327 4.25101 2.28968 6.06622 3.22711 3.16228 3.13503 2.7671 2.19737 1.95664 1.84776 1.55377 1.68179 1.95664 1.84776 3.80595 3.93513 6.61808 6.34931 3.75114 3.69552 3.82843 3.69552 3.63904 2.61313 2.69122 1.84776 3.353 3.41421 3.47434 3.61539 2.69122 6.63103 6.70601 7.18522 2.19737 1.84776 7.19715 4.82843 4.72374 4.61668 4.50707 4.39474 4.18154 4.06021 3.93513 3.80595 3.55765 3.41421 3.26448 2.101 1.84776 2.7671 2.58009 4.08998 3.85999 3.04017 2.97127 2.90073 2.32685 2.101 1.84776 1.55377 1.41421 1.55377 1.68179 3.32732 3.07982 3.01182 2.19737 1.84776 1.55377 1.73205 1.41421 1.41421 1.18921 1.55377 1.73205 1.18921 1.55377 1.41421 3.20041 3.353 3.61539 3.75114 3.98742 4.1109 6.4331 6.52897 2.19737 1.73205 1.84776 2.101 1.55377 1.18921 1.55377 1.55377 1.84776 1.41421 1.73205 2.19737 7.20209 7.27118 7.39584 5.12276 5.16303 5.06526 5.10598 5.14639 4.06021 5.20981 5.11294 2.101 1.84776 2.49853 3.59159 3.44956 3.30144 3.14635 3.38899 3.14635 3.07982 3.01182 2.19737 3.10755 3.04017 3.16228 3 3.37849 3.13503 1.84776 2.19737 2.49853 3.01182 3.78335 3.7282 3.67223 6.97843 4.74935 4.70554 4.66132 3.96584 3.91327 3.85999 3.80595 4.41421 4.29945 4.18154 4.06021 3.93513 5.34381 4.00887 3.88215 3.82843 3.77394 3.71866 3.77394 3.82843 3.95687 3.6488 3.59159 3.44956 3.30144 4.99706 4.87113 3.32732 3.7282 3.38899 3.32732 3.17349 3.10755 3.04017 2.19737 1.95664 3.353 3.20041 2.94225 2.49853 2.101 1.84776 1.55377 1.41421 1.18921 1.55377 2.05977 1.95664 2.19737 2.41421 2.61313 3.53345 3.78335 2.61313 2.79793 2.871 1.95664 2.84096 3.01182 3.07982 3.2381 3.63904 3.85077 2.101 4.08128 4.13171 4.55279 1.84776 1.41421 1.84776 2.61313 2.79793 2.49853 4.66132 4.51821 4.62755 4.75992 4.56382 4.51821 4.52607 3.43925 4.31936 4.36704 3.43925 4.5716 5.08915 2.19737 2.28968 2.19737 1.68179 1.84776 1.95664 2.19737 2.41421 2.871 3.04017 3.32732 2.84096 2.7671 2.49853 2.69122 2.871 3.04017 3.20041 3.78335 3.91327 6.85869 6.93121 6.30067 6.33346 3.96584 3.59159 6.30067 6.26772 6.34699 6.26772 2.79793 2.61313 2.41421 2.19737 1.95664 1.84776 1.55377 1.41421 1 0 1 1.41421 1.73205 2 2.23607 2.44949 2.90073 3.06826 3.353 3.353 1.84776 1.55377 1.84776 4.03022 4.15243 4.19003 4.30771 4.35552 1.55377 1.84776 2.101 2.32685 2.53263 1.84776 1.84776 2.101 2.32685 2.53263 3.52338 3.66254 3.79661 4.20201 4.25101 1.95664 6.13412 6.2151 6.29503 6.37396 6.45193 6.52897 6.59749 6.62881 6.70381 11.127 11.082 4.49918 4.38664 4.27114 4.15243 4.03022 3.90418 3.77394 2.61313 2.101 1.84776 2.19737 2.19737 2.41421 2.19737 2.19737 1.95664 1.68179 2.41421 3.07982 3.30144 3.2381 3.07982 3.91327 3.78335 2.28968 2.19737 2.41421 2.32685 2.41421 3.38899 3.44956 3.17349 1.95664 3.70512 3.8377 3.353 2.19737 4.99706
3.07982 3.2381 3.38899 5.67567 5.58688 4.95544 4.85349 3.14635 2.84096 3.47434 3.41421 4.488 4.46884 3.94415 3.89129 3.8377 3.44956 3.32732 3.01182 2.58009 2.49853 2.19737 1.84776 1.73205 1.84776 3.63904 3.69552 3.75114 3.69552 3.22711 2.90073 2.97127 3.22711 2.72291 2.79793 3.10755 3.17349 3.41421 2.94225 3.20041 2.41421 2.49853 3.7282 4.08128 4.13171 3.2381 6.03198 3.06826 3 2.97127 2.41421 2.49853 1.84776 1.55377 1.18921 1.55377 1.84776 2.101 2.32685 3.88215 4.00887 6.4917 6.45972 4.08128 3.95687 2.79793 2.871 2.94225 2.19737 1.41421 1.84776 3.55765 3.61539 3.67223 3.80595 3.93513 6.67505 7.25448 7.22587 7.29474 7.26629 4.69799 4.59032 4.48007 4.36704 4.25101 4.13171 4.00887 3.88215 3.75114 3.61539 3.47434 3.32732 3.17349 3.01182 2.84096 4.25936 4.03902 3.26448 3.20041 3.22711 2.72291 2 1.73205 1.41421 1.55377 1.73205 2 1.95664 3.38899 3.2381 3.17349 2.41421 1.95664 2.101 2 1.73205 1.73205 1.55377 1.84776 2 1.55377 1.18921 1.55377 1.84776 1.95664 2.19737 2.28968 2.49853 4.06021 4.18154 6.60511 6.57368 6.54209 2.101 2.32685 1.84776 1.55377 1.84776 1.18921 1.55377 1.55377 1.84776 2.101 1.73205 7.29961 7.36779 4.25936 4.21045 4.08998 4.03902 4.08998 3.93513 3.88215 5.07227 4.97272 2.41421 2.19737 2.19737 2.19737 3.2381 3.07982 3.2381 3.07982 2.91295 2.84096 2.7671 1.84776 2.871 2.79793 2.72291 3.22711 2.97127 1.84776 2.19737 2.7671 3.2381 3.53345 3.47434 4.82843 4.78534 4.74186 4.69799 4.65369 4.31936 4.06021 4.46088 4.41421 4.29945 2.871 2.69122 2.49853 3.80595 3.75114 4.06021 3.82843 1.68179 1.55377 1.41421 2.41421 2.49853 3.82843 3.77394 3.6488 3.50909 5.13661 4.87113 3.32732 3.7282 4.55279 4.31936 4.20201 4.08128 3.95687 3.82843 3.69552 3.55765 3.41421 2.53263 2.32685 2.101 1.84776 1.55377 1.18921 1 1.41421 1.73205 1.95664 2.19737 2.41421 2.61313 2.79793 3.10755 3.7282 3.96584 2.871 3.04017 3.10755 3.17349 3.2381 3.2381 3.30144 3.77394 3.9785 1.84776 2.41421 4.25101 4.66132 4.61668 1.41421 1.55377 1.18921 2.871 3.04017 4.97272 4.81063 4.90623 4.86383 4.67209 4.62755 4.63522 4.48007 4.43361 4.48007 3.58168 4.67969 5.18647 2.58009 2.49853 2.05977 2.101 1.41421 1.55377 1.84776 2.101 2.49853 2.19737 2.58009 2.49853 2.37841 2.58009 2.7671 2.94225 3.10755 3.59159 3.7282 3.01182 3.17349 6.90126 6.97334 6.41192 3.78335 6.41192 6.37954 3.353 3.20041 3.04017 2.871 2.69122 2.49853 2.53263 2.32685 2.101 1.84776 1.55377 1.41421 1 1.41421 1.73205 2 2.23607 2.44949 2.64575 2.82843 2.97127 3.13503 1.84776 2.101 3.71866 3.85077 4.08128 4.01773 4.06895 1.95664 1.55377 1.84776 2.101 2.32685 2.53263 1.41421 1.41421 1.73205 2 2.23607 2.44949 2.64575 5.52778 5.6175 5.70582 6.05206 6.08618 6.16779 6.22081 6.25401 6.33346 6.36608 6.44414 6.52127 1.95664 6.67285 11.1084 11.0633 2.32685 2.101 1.84776 3.353 3.20041 3.04017 2.871 1.84776 1.84776 2.49853 2.49853 2.69122 2.49853 2.49853 2.28968 2.05977 1.95664 2.61313 3.2381 3.44956 3.30144 3.2381 4.03902 3.91327 3.96584 2.41421 2.61313 2.69122 2.61313 2.69122 3.59159 3.32732 2.19737 2.41421 3.89129 3.49895 3.55765 5.09613
3.01182 3.30144 3.44956 5.63906 4.89597 4.79276 4.81063 4.70554 2.91295 2.58009 3.26448 4.37517 4.42226 4.30771 3.7606 3.70512 3.6488 3.2381 3.10755 2.7671 2.49853 2.19737 1.84776 1.41421 3.43925 3.49895 3.55765 3.61539 3.13503 3.06826 2.72291 3.13503 3.06826 2.53263 2.61313 2.94225 3.20041 3.26448 2.7671 3.04017 2.19737 3.53345 3.59159 3.95687 3.01182 3.17349 6.04618 2.90073 2.82843 2.79793 2.32685 2.101 1.84776 1.95664 2.19737 2.41421 2.61313 2 2.23607 2.44949 3.95687 4.08128 6.53666 6.61271 3.04017 3.10755 3.17349 2.49853 1.84776 1.73205 1.84776 2.19737 3.75114 3.80595 3.93513 4.06021 6.81064 6.88366 7.39104 7.36296 4.84616 4.74186 4.63522 5.6175 5.52778 5.43658 5.34381 5.24941 5.15329 5.05533 4.95544 4.85349 4.74935 4.64288 4.53391 4.42226 4.21045 3.47434 3.41421 3.43925 2.97127 2.101 1.84776 1.73205 1.41421 1.84776 1.95664 2.41421 2.61313 3.98742 3.38899 3.32732 2.49853 2.41421 2.32685 2.101 2 2 2.101 2.32685 2.61313 2.05977 1.55377 1.18921 1.55377 1.84776 1.95664 3.75114 3.88215 4.00887 4.13171 4.25101 3.04017 6.68038 6.6493 2.53263 2.101 1.84776 2.101 1.55377 1.84776 1.18921 1.55377 1.84776 1.84776 7.27118 4.25936 4.14031 3.38899 3.2381 1.73205 3.44956 3.26448 3.75114 3.69552 4.93089 3.61539 3.47434 3.32732 3.17349 3.01182 3.01182 3.01182 3.01182 2.84096 2.65915 2.58009 2.49853 2.19737 2.101 2.53263 3.06826 2.79793 1.84776 2.49853 3.01182 2.94225 3.26448 4.94826 4.90623 3.26448 3.20041 2.90073 3.90418 3.63904 4.15243 3.88215 4.29945 4.18154 4.06021 3.93513 2.28968 2.19737 3.61539 3.55765 3.77394 3.63904 1.55377 2.101 2.19737 2.101 2.32685 3.71866 3.70512 5.27247 5.01419 3.53345 3.91327 4.70554 4.48007 3.85077 3.71866 3.58168 3.43925 3.29066 3.13503 2.97127 2.79793 2.44949 2.23607 2 1.73205 1.41421 1 0 1 1.84776 2.101 2.32685 2.53263 2.72291 2.90073 3.06826 3.32732 3.91327 4.14031 3.10755 3.26448 3.41421 3.38899 3.44956 3.59159 3.50909 4.10225 4.15243 1.84776 4.36704 4.41421 4.72374 1.73205 1.84776 1.55377 1.68179 1.55377 3.26448 5.11294 5.0071 4.96557 4.77791 4.73437 4.74186 4.59032 4.63522 4.59032 4.74186 4.78534 5.35984 3.61539 3.10755 2.79793 2.32685 1.84776 1.55377 1.18921 1.55377 1.84776 1.95664 2.19737 2.05977 2.28968 2.19737 2.41421 2.61313 3.17349 3.32732 2.7671 2.94225 3.10755 2.49853 6.94357 6.48943 6.52127 6.48943 3.55765 3.41421 1.84776 2.19737 2.94225 2.7671 2.79793 2.72291 2.53263 2.32685 2.101 1.84776 1.55377 1 1.18921 1.55377 1.84776 2.101 2.32685 2.53263 2.72291 2.90073 2.82843 3 3.29066 3.77394 3.59159 3.6488 3.89129 1.55377 1.84776 1.84776 2.101 4.488 4.59806 4.79276 4.89597 4.99706 5.09613 5.19332 5.28872 5.38243 5.47454 5.56512 5.71826 5.75436 5.94006 6.02364 6.10608 6.13991 1.84776 1.95664 1.95664 2.19737 2.41421 1.84776 6.64174 7.28785 11.082 11.0368 1.84776 3.55765 3.41421 3.26448 3.10755 2.19737 2.19737 2.7671 2.7671 2.94225 2.7671 2.7671 2.69122 2.37841 2.28968 1.84776 2.79793 3.38899 3.59159 3.44956 1.84776 4.16097 4.21045 4.08998 2.61313 2.53263 2.871 2.94225 2.871 3.7282 3.47434 1.55377 2.61313 4.16097 4.27945 4.488 5.19332
3.47434 3.2381 5.69076 5.60221 2.19737 4.74935 4.64288 4.66132 4.55279 2.65915 3.10755 4.46088 4.21045 4.25936 4.14031 3.56762 3.50909 3.44956 3.01182 2.7671 2.49853 2.19737 1.84776 1.41421 3.29066 3.353 3.41421 2.90073 2.97127 2.90073 2.53263 2.82843 2.53263 2.32685 2.41421 2.7671 3.04017 2.49853 2.79793 2.871 2.58009 3.38899 3.77394 3.82843 3.13503 5.92808 5.96291 2.72291 2.64575 2.44949 2.101 1.84776 1.55377 1.68179 1.95664 2.19737 2.69122 3.61539 3.75114 3.88215 4.00887 4.13171 4.25101 6.64395 3.32732 3.38899 2.7671 2.19737 2.101 2 2.101 2.41421 2.49853 1.55377 1.18921 4.1109 6.88366 5.26573 5.16991 4.98994 4.88871 4.78534 5.742 5.65425 3.37849 3.22711 3.06826 2.90073 2.72291 2.53263 2.32685 2.101 1.84776 3.6488 3.78335 3.7282 3.67223 3.61539 3.63904 3.20041 2.41421 2.19737 2.101 2 1.41421 1.41421 1.55377 1.18921 1.55377 3.93513 4.06021 2.7671 2.79793 2.61313 2.41421 2.32685 2 2.23607 2.44949 2.41421 3.10755 1.95664 1.84776 1.55377 1.18921 3.41421 3.55765 3.69552 2.19737 2.41421 2.61313 2.79793 2.97127 3.13503 6.82843 2.72291 2.32685 2.101 2.32685 1.84776 2.101 1.55377 1.68179 1.95664 7.23079 7.29961 4.14031 1.18921 3.2381 3.07982 1.84776 3.30144 3.10755 3.04017 3.55765 4.97272 4.87113 3.53345 3.38899 3.2381 2.94225 2.7671 2.7671 2.7671 2.7671 2.58009 2.37841 2.28968 2.19737 1.84776 2.32685 2.90073 2.61313 2.19737 2.7671 2.69122 2.871 3.10755 4.84616 3.43925 3.29066 3.04017 2.97127 3.77394 3.353 3.43925 3.75114 3.69552 3.55765 3.41421 3.88215 3.75114 3.61539 1.68179 3.41421 3.353 3.49895 3.353 1.84776 1.73205 1.84776 2.19737 3.41421 3.47434 5.15329 5.05533 4.08998 4.85349 4.63522 6.61808 6.54209 6.46521 6.38741 6.30864 6.27573 3.41421 3 2.82843 2.64575 2.44949 2.23607 2 1.73205 1.41421 1 1.41421 1.73205 2 2.23607 2.44949 2.64575 2.82843 3.13503 3.29066 3.53345 4.08998 4.30771 3.32732 3.47434 3.61539 3.75114 3.6488 3.78335 3.8377 4.38664 4.52607 1.84776 4.52607 4.82843 2 2.101 1.84776 1.95664 1.18921 1.95664 5.15329 5.10598 5.06526 4.88144 4.83882 4.84616 4.78534 4.74186 4.80324 4.84616 6.01183 5.85779 3.20041 2.101 1.84776 1.55377 1.18921 1.41421 1.55377 1.68179 1.55377 1.84776 1.68179 1.95664 1.84776 2.101 2.49853 2.94225 3.10755 2.49853 2.49853 2.49853 2.19737 2.19737 6.91368 6.98563 6.59749 3.75114 3.61539 2.19737 2.49853 3.17349 3.01182 3.04017 2.97127 2.79793 2.41421 2.19737 1.95664 1.68179 1.55377 1.84776 1.55377 1.18921 1.55377 1.84776 2.101 2.32685 2.53263 3.32732 3.47434 3.61539 4.06021 4.18154 3.44956 3.70512 3.8377 3.96584 4.08998 4.21045 4.32758 4.44161 4.25936 4.37517 4.42226 4.53391 4.64288 4.74935 5.42732 5.46535 5.55608 5.59323 5.63014 3.26448 3.32732 1.84776 1.84776 1.18921 1.55377 1.55377 1.84776 2.101 3.353 6.53441 6.61048 7.1613 7.19017 11.0556 11.0102 10.9647 3.59159 3.32732 2.49853 3.17349 3.01182 3.01182 3.17349 3.01182 3.01182 2.94225 2.65915 2.58009 2.19737 1.84776 2.97127 3.53345 3.7282 3.59159 2.101 2 4.32758 4.21045 4.16097 2.871 2.79793 3.10755 3.04017 3.85999 3.61539 3.67223 1.18921 1.55377 1.84776 4.44161 5.86991
3.53345 5.742 5.65425 2.101 1.84776 1.84776 4.59806 4.488 4.50707 4.39474 2.37841 2.871 4.16097 4.03902 4.08998 3.96584 3.36359 3.30144 3.2381 2.7671 2.49853 2.19737 1.84776 2.72291 3.13503 3.20041 1.73205 2.72291 2.79793 2.72291 2.32685 2.64575 2.32685 2.101 2.49853 2.58009 2.871 2.28968 2.61313 2.28968 3.17349 3.32732 3.63904 2.90073 2.97127 5.84313 2.61313 2.53263 2.44949 2.23607 1.84776 2.41421 2.49853 2.69122 2.871 3.04017 3.20041 3.353 3.53345 3.59159 3.7282 3.85999 3.98742 6.78016 6.81064 3.01182 2.49853 2.41421 2.32685 2.41421 2.32685 2.61313 2.69122 1.84776 1.73205 2 6.9979 5.22625 1.84776 5.03127 4.93089 5.86385 5.77796 4.87113 4.76738 4.66132 4.55279 4.44161 4.32758 4.21045 4.08998 3.96584 3.8377 3.96584 3.91327 3.85999 3.80595 3.82843 3.41421 2.69122 2.49853 2.41421 2.32685 1.84776 1.18921 1.73205 1.84776 1.55377 1.68179 1.95664 4.1109 4.23078 2.871 2.79793 2.61313 1.84776 1.73205 1.41421 2.64575 2.82843 3.26448 2.19737 2.41421 1.84776 3.41421 3.55765 1.55377 1.84776 2.101 2.32685 2.53263 2.72291 2.90073 3.06826 6.90126 6.87119 2.53263 2.32685 2.53263 2.101 2.32685 1.84776 1.95664 7.23079 7.25937 4.21045 4.08998 1.55377 3.07982 2.91295 2.84096 3.01182 3.07982 2.871 3.41421 3.353 4.91346 2.94225 2.7671 3.17349 3.01182 2.69122 2.49853 2.49853 2.49853 2.49853 2.28968 2.05977 1.95664 1.84776 2.101 2.72291 2.41421 2.49853 2.41421 2.61313 2.871 2.79793 4.74186 2.97127 3.13503 2.97127 2.79793 3.63904 3.20041 3.29066 2.94225 3.41421 3.353 3.353 3.20041 3.13503 3.55765 3.41421 1.18921 3.20041 3.13503 3.20041 2.97127 1.41421 1.84776 2.19737 2.7671 3.32732 3.38899 5.09613 4.99706 4.78534 6.66219 6.58671 3.47434 3.32732 3.17349 3.01182 6.19554 3.353 3.20041 2.90073 2.72291 2.64575 2.44949 2.23607 2 1.73205 1.41421 1.73205 2 2.23607 2.44949 2.64575 2.82843 3 3.06826 3.353 3.49895 3.7282 3.98742 3.47434 3.53345 3.67223 3.80595 3.93513 4.06021 4.18154 4.29945 4.63522 4.59032 4.63522 4.93089 2.41421 2.32685 2.101 2.19737 1.55377 1.68179 5.19332 5.20299 5.16303 4.98281 4.94107 5.03127 4.88871 4.94826 4.98994 6.06036 5.97728 2.32685 2.101 1.84776 1.95664 1.68179 1.55377 1.41421 1.84776 1.95664 1.18921 1.55377 1.55377 1.41421 1.73205 2.19737 2.69122 2.871 2.19737 2.19737 2.19737 1.84776 1.84776 2.101 2.32685 6.95592 3.93513 3.80595 2.49853 2.7671 3.38899 3.2381 3.26448 3.20041 3.04017 2.69122 2.49853 2.28968 2.05977 1.95664 2.19737 1.95664 1.41421 1.55377 1.18921 1.55377 1.84776 2.101 2.871 3.04017 2.19737 3.88215 4.00887 3.2381 3.50909 3.32732 3.47434 3.61539 3.75114 3.8377 3.96584 4.08998 4.21045 4.25936 4.37517 4.488 4.59806 5.29543 5.3344 2.84096 3.01182 2.65915 2.84096 3.10755 1.18921 1.55377 1.55377 1.55377 1.84776 1.41421 1.73205 3.13503 6.42528 6.56603 7.12029 7.09114 7.12029 7.14931 7.17822 10.9836 3.80595 3.67223 3.53345 3.38899 3.2381 3.38899 3.2381 3.07982 3.17349 2.91295 2.84096 2.49853 2.19737 1.84776 3.13503 3.67223 3.85999 3.7282 2.32685 2.23607 4.44161 4.488 4.27945 3.04017 3.10755 3.26448 3.20041 3.98742 4.03902 3.80595 1.55377 1.68179 1.95664 1.84776 5.83452
3.59159 5.70582 5.6175 3.47434 3.32732 3.17349 3.01182 4.44161 4.32758 4.34735 4.23078 2.69122 2.49853 3.98742 3.85999 3.91327 3.78335 3.6488 3.07982 3.01182 2.49853 2.19737 1.84776 2.53263 2.82843 3.04017 1.41421 2.53263 2.61313 2.53263 2.101 2.44949 2.101 1.84776 2.28968 2.61313 2.69122 2.05977 2.41421 2.94225 3.10755 3.43925 3.74166 2.72291 2.19737 5.75692 2.41421 1.84776 2.23607 2 2.101 2.19737 2.79793 2.97127 2.94225 3.10755 3.17349 3.32732 3.38899 3.17349 3.01182 3.32732 3.93513 4.06021 6.88366 6.85351 2.69122 2.61313 2.69122 2.61313 2.69122 2.79793 2.871 2.101 2.19737 1.55377 7.02743 5.26573 5.16991 5.07227 5.98323 5.89907 5.01419 4.91346 4.72374 4.61668 4.50707 4.39474 4.27945 4.16097 4.03902 3.91327 4.03902 4.08998 4.03902 3.98742 4.00887 3.61539 2.94225 2.7671 2.69122 2.61313 2.44949 2 1.73205 2 2.101 1.84776 1.95664 2.05977 2.28968 4.27945 3.04017 2.871 2.79793 2.101 2 1.18921 1.55377 2.90073 3.61539 2.69122 3.75114 3.69552 3.55765 1 1.41421 1.55377 1.84776 2.101 2.32685 2.53263 2.72291 3.04017 3.20041 6.94357 6.97334 7.00297 7.07401 7.10323 7.17327 7.20209 7.23079 7.29961 4.37517 4.25936 2.101 1.84776 3.01182 2.84096 2.65915 2.58009 2.7671 2.84096 2.61313 3.20041 4.87113 3.01182 2.69122 2.49853 2.7671 2.58009 2.19737 2.19737 2.19737 2.19737 2.19737 1.95664 1.68179 1.55377 1.84776 2.53263 2.19737 2.101 2.32685 2.41421 2.53263 4.67969 4.63522 2.79793 2.79793 2.79793 2.61313 3.49895 3.04017 3.13503 3.06826 2.69122 3.20041 3.13503 2.97127 2.97127 2.90073 3.353 3.20041 1.55377 2.97127 2.90073 2.79793 2.72291 1.84776 2.49853 2.7671 3.17349 3.2381 3.38899 6.78016 6.70601 6.63103 3.55765 3.41421 3.26448 3.10755 2.94225 6.16203 6.08034 5.99755 2.97127 2.90073 2.44949 2.23607 2 1.73205 1.41421 1 1.41421 1.73205 2 2.23607 2.44949 2.64575 3.06826 3.22711 3.29066 3.55765 3.55765 4.03902 4.16097 4.27945 3.7282 3.85999 2.19737 1.84776 1.84776 4.34735 4.46088 4.78534 5.07227 5.03127 2.61313 2 2.32685 2.41421 2.49853 1.95664 5.23305 5.29821 5.25898 5.08217 5.04125 5.12969 5.08915 5.12969 6.17593 6.09443 2.32685 2.101 1.84776 2.28968 2.05977 1.95664 1.84776 2 2.101 2.19737 1.55377 1.84776 1.18921 1.55377 1.84776 2.41421 2.61313 1.84776 1.84776 1.84776 1.84776 2.101 3.22711 3.37849 3.52338 6.92608 7.27118 3.85999 3.7282 3.59159 3.44956 3.47434 3.41421 3.26448 2.94225 2.7671 2.58009 2.37841 2.28968 2.49853 2.28968 1.84776 1.95664 1.84776 1.55377 1.84776 2.101 2.61313 2.79793 1.84776 3.69552 3.82843 3.01182 3.30144 3.10755 3.26448 3.41421 3.59159 3.6488 3.78335 3.59159 3.7282 4.08998 4.21045 4.32758 4.44161 5.16018 5.20016 2.58009 2.65915 2.84096 2.58009 2.7671 1.84776 1.55377 1.84776 2.101 2.32685 2.69122 2.871 3.04017 3.20041 6.45744 7.02028 7.04972 2.101 1.84776 4.69799 7.10823 11.0024 3.85999 3.7282 3.59159 3.44956 3.59159 3.44956 3.30144 3.2381 3.32732 3.07982 2.7671 2.49853 2.19737 1.84776 3.29066 3.80595 3.98742 3.85999 2.53263 2.44949 2.53263 4.59806 4.488 4.44161 3.26448 3.53345 3.353 3.41421 4.16097 3.93513 1.84776 1.95664 2.05977 1.55377 5.86991
6.54752 5.11988 5.58051 5.49019 3.26448 3.10755 2.94225 2.7671 4.27945 4.16097 4.18154 4.06021 2.41421 2.19737 3.80595 3.67223 3.53345 3.59159 3.44956 3.38899 2.7671 2.19737 1.84776 2.32685 2.64575 2.871 2.53263 2.32685 2.41421 2.32685 1.84776 2.23607 1.84776 1.95664 2.05977 2.41421 1.68179 1.95664 2.69122 2.871 3.22711 3.29066 2.44949 1.84776 1.95664 5.6694 2.19737 2.101 2 1.73205 1.84776 2.53263 2.61313 1.95664 2.28968 2.49853 2.69122 2.7671 2.94225 2.7671 3.10755 3.26448 3.53345 4.1109 4.32758 6.92608 6.89611 2.94225 2.871 2.94225 2.871 2.97127 3.04017 2.32685 2.41421 2.61313 7.09822 5.30492 5.20981 6.10026 6.01774 5.15329 5.05533 4.87113 4.76738 2.90073 2.72291 2.53263 2.32685 2.101 1.84776 4.21045 4.25936 4.21045 4.16097 4.18154 3.80595 3.17349 3.01182 2.94225 2.871 2.72291 2.32685 1.55377 2.32685 2.23607 2.32685 1.84776 2.19737 2.28968 2.49853 4.39474 4.50707 3.04017 2.101 2.32685 2.23607 1.55377 1.68179 2.97127 3.75114 3.93513 3.88215 1.41421 1 0 1 1.41421 1.73205 2 2.23607 2.44949 2.79793 2.97127 3.13503 3.29066 8.50446 8.48008 8.50446 8.52878 8.55303 8.28239 8.25735 8.23223 4.42226 4.21045 2.871 2.69122 2.49853 2.7671 2.58009 2.37841 2.28968 2.49853 2.41421 3.04017 4.82843 2.94225 2.7671 2.41421 2.19737 2.28968 2.05977 1.84776 1.84776 1.84776 1.84776 1.84776 1.55377 1.18921 1.55377 2.32685 1.95664 1.84776 2.101 2.23607 2.32685 4.5716 1.84776 2.61313 2.61313 2.61313 2.41421 3.353 2.871 2.79793 2.90073 2.49853 2.41421 2.53263 2.90073 2.72291 2.72291 2.64575 3.04017 2.61313 2.79793 2.72291 2.61313 2.53263 2.19737 2.49853 2.94225 3.01182 3.17349 3.2381 6.74954 3.06826 2.90073 2.72291 2.53263 2.32685 2.101 1.84776 2.69122 2.49853 5.96291 5.87846 2.72291 2.23607 2 1.73205 1.41421 1 0 1 1.41421 1.73205 2 2.23607 2.44949 2.64575 3.29066 3.43925 3.69552 3.82843 3.75114 4.08998 4.32758 4.44161 3.91327 4.03902 1.95664 2.19737 1.84776 4.50707 5.20981 5.16991 2.871 2.79793 2.23607 2.53263 2.61313 2.69122 2.19737 5.32774 5.36647 5.35321 5.17962 5.13948 5.22625 5.26573 6.28938 6.25637 2.61313 2.41421 2.19737 2.58009 2.37841 2.28968 2.19737 1.84776 2.23607 2.49853 2.41421 2.19737 2.101 1.55377 1.84776 2.101 2.32685 2 2.23607 2.44949 2.64575 2.82843 3 3.16228 3.85999 3.98742 4.1109 7.24264 7.31135 3.78335 3.6488 3.67223 3.61539 3.47434 3.17349 3.01182 2.84096 2.65915 2.58009 2.7671 2.58009 2.61313 2.41421 2.19737 1.84776 1.55377 1.41421 1.73205 2 3.353 3.49895 3.63904 2.7671 3.07982 2.871 2.94225 3.32732 3.38899 3.44956 3.2381 3.38899 3.53345 3.91327 4.03902 4.16097 4.27945 4.39474 5.06235 2.28968 2.37841 2.58009 2.7671 2.49853 2.49853 2.69122 2.871 3.04017 3.20041 3.353 2.44949 2.64575 2.97127 6.34699 6.42528 6.94869 1.73205 1.84776 4.54498 4.59032 7.03754 11.0213 10.9758 2.101 1.84776 1.55377 3.6488 3.50909 3.44956 2.49853 3.47434 3.2381 2.94225 2.49853 2.19737 3.49895 3.43925 3.93513 4.1109 3.98742 2.72291 2.79793 2.97127 4.70554 4.74935 4.55279 1.84776 3.67223 3.7282 3.55765 4.27945 4.06021 1.84776 2.19737 2.28968 1.68179 5.90509
6.47071 6.43862 4.97986 5.45233 5.35984 2.41421 1.84776 2.19737 2.49853 4.1109 3.98742 4.00887 3.88215 2.101 1.84776 1.84776 3.47434 3.32732 3.17349 3.2381 3.17349 2.49853 1.84776 2.101 2.44949 2.53263 2.32685 2.101 2.19737 2.101 1.55377 2 1.55377 1.68179 1.95664 2.19737 1.55377 1.84776 2.61313 2.90073 3.06826 2 2.23607 1.55377 1.68179 5.63275 5.72083 1.84776 1.73205 1.41421 1.73205 2.32685 1.55377 1.95664 2.19737 2.28968 2.49853 2.69122 2.49853 2.871 3.04017 3.32732 3.59159 3.2381 4.27945 4.39474 7.02743 6.9979 3.17349 3.10755 1.84776 3.13503 3.20041 2.53263 2.61313 2.69122 7.12734 5.34381 6.2151 6.13412 5.28872 5.19332 5.01419 4.91346 2.90073 2.72291 2.53263 2.32685 2.101 1.84776 4.37517 4.42226 4.37517 4.32758 4.34735 3.98742 3.38899 3.2381 3.17349 3.10755 2.97127 2.61313 1.95664 2.61313 2.53263 2.61313 2.53263 2.101 1.84776 1.55377 1.18921 1.55377 4.55279 3.20041 3.13503 2.53263 2.44949 1.84776 1.95664 3.04017 4.1109 4.06021 1.84776 1.55377 1.41421 1 1.18921 1.55377 1.84776 2.101 2.32685 2.53263 2.72291 2.90073 3.06826 8.42091 8.44547 2.41421 1.84776 2.7671 7.08405 6.75481 1.84776 8.17126 8.14588 4.16097 3.93513 2.61313 2.41421 2.19737 2.49853 2.28968 2.05977 2.28968 2.19737 2.871 4.78534 1.84776 2.49853 2.28968 2.19737 1.84776 1.95664 1.68179 1.41421 1.41421 1.41421 2.101 1.84776 1.55377 1.18921 2.101 1.68179 1.55377 1.84776 2 1.73205 4.46088 1.55377 2.41421 2.41421 2.41421 2.19737 3.20041 3.13503 2.61313 2.72291 2.28968 2.19737 2.101 2.23607 2.53263 2.32685 2.44949 2.871 2.69122 2.61313 2.53263 2.41421 2.32685 2.19737 2.69122 2.7671 2.94225 3.01182 3.17349 6.71879 4.08128 3.95687 3.82843 3.69552 3.55765 3.41421 3.26448 3.10755 2.94225 2.7671 5.84313 5.75692 2.44949 2.23607 2 1.73205 1.41421 1 1.41421 1.73205 2.19737 2.41421 2.32685 2.53263 2.72291 2.90073 3.06826 3.22711 3.95687 4.00887 3.93513 4.25936 4.488 4.59806 4.16097 2.05977 2.28968 1.55377 4.55279 4.66132 5.34381 5.30492 1.84776 2.44949 2.53263 2.79793 2.871 2.94225 2.49853 5.45885 5.44581 5.27527 5.23586 5.39835 6.40083 6.36839 2.871 2.69122 2.49853 2.84096 2.65915 2.58009 2.49853 1.84776 2.101 2.44949 2.69122 2 2.41421 1.68179 1.55377 1.18921 1.55377 1.84776 2.101 2.32685 2.53263 2.72291 3.38899 3.53345 3.67223 3.80595 2.19737 1.84776 2.101 7.28297 3.8377 3.93513 3.80595 3.67223 3.38899 3.2381 3.07982 3.32732 3.17349 3.01182 2.84096 2.871 2.69122 1.95664 2.32685 3.04017 2.871 2.94225 3.10755 3.26448 3.41421 2.28968 2.49853 2.84096 2.61313 2.69122 3.10755 3.17349 2.84096 3.01182 3.17349 3.32732 3.7282 3.85999 3.98742 4.1109 3.98742 4.34735 4.9626 2.05977 2.28968 2.49853 2.19737 2.19737 2.41421 2.61313 2.79793 2.97127 3.13503 3.41421 3.55765 3.69552 6.23459 6.31427 6.90641 6.87636 1.41421 4.38664 4.43361 4.48007 7.00805 6.99579 10.9946 10.9491 1.95664 3.8377 3.78335 3.6488 2.7671 1.84776 3.61539 3.38899 3.10755 2.49853 2.19737 3.63904 3.41421 4.06021 4.23078 4.1109 2.44949 1.55377 3.13503 3.29066 4.85349 4.74935 1.84776 2.19737 3.85999 3.69552 4.39474 4.18154 2.101 2.41421 2.49853 2.58009 5.94006
6.39297 6.36049 6.32785 4.83578 5.39835 5.22625 2.101 1.84776 1.84776 2.19737 3.93513 3.80595 3.82843 3.69552 3.55765 2.101 1.84776 1.84776 3.10755 2.94225 3.01182 2.94225 2.19737 1.84776 2.23607 2.32685 2.101 1.84776 1.95664 1.84776 1.18921 1.73205 1.18921 1.55377 1.84776 1.84776 2.101 2.32685 2.53263 2.72291 1.55377 1.73205 1.41421 1.18921 2.101 2.32685 5.75692 1.55377 1.41421 1 1.41421 2.101 1.55377 1.84776 1.95664 2.19737 2.19737 2.19737 2.61313 2.79793 3.10755 3.38899 3.01182 2.7671 2.94225 4.34735 4.46088 7.12734 7.09822 2.19737 3.353 3.29066 3.353 1.84776 2.79793 2.871 7.15634 6.32785 6.24833 5.42077 5.63906 5.47454 5.38243 5.28872 2.53263 2.32685 2.101 1.84776 1.84776 4.53391 4.57936 4.53391 4.488 4.50707 4.16097 3.59159 3.44956 3.38899 3.32732 3.20041 2.871 2.28968 2.871 2.79793 2.97127 2.79793 2.23607 2.32685 2.101 1.84776 1.55377 1.68179 4.59806 4.85349 3.29066 2.72291 2.64575 1.84776 3.13503 3.353 4.23078 2.19737 1.95664 2 1.73205 1.41421 1.55377 1.41421 1.73205 2 2.23607 2.44949 2.90073 3.06826 8.33651 8.36132 2.101 2.19737 2.49853 3.01182 7.01311 6.68038 2.19737 1.84776 8.08426 8.10984 3.98742 2.32685 2.101 1.84776 1.84776 2.19737 1.95664 2.05977 1.95664 2.69122 4.74186 2.101 1.84776 1.55377 1.95664 2.32685 2.101 1.84776 1.84776 1.84776 2.41421 2.49853 2.101 1.84776 1.55377 1.84776 1.55377 1.18921 1.55377 1.73205 1.41421 4.41421 1.18921 2.19737 2.19737 2.19737 1.95664 1.84776 2.97127 2.41421 2.53263 2.05977 1.95664 1.84776 2 2.32685 2.101 2.23607 2 2.61313 2.41421 2.32685 2.19737 2.101 2.41421 2.49853 2.69122 2.7671 2.7671 3.01182 6.68789 6.61271 3.90418 3.77394 3.63904 3.49895 3.353 3.20041 3.04017 2.871 2.69122 2.49853 5.72083 5.63275 2.44949 2.23607 2 1.73205 1.41421 1.55377 1.84776 2.101 2.32685 2.53263 2.61313 2.79793 1.84776 2.101 3.41421 3.55765 4.13171 4.18154 4.1109 4.23078 4.64288 4.27945 4.32758 4.44161 1.68179 1.95664 4.70554 4.81063 5.39835 1.84776 2.64575 2.72291 2.97127 3.04017 3.10755 2.69122 5.54968 5.53686 5.36921 5.52778 6.51036 6.47847 3.29066 2.94225 2.7671 3.07982 2.91295 2.94225 2.7671 1.84776 2.28968 2.32685 2.64575 2.871 2.23607 2.7671 2.101 1.41421 1.55377 1.41421 1.73205 2 2.23607 2.44949 2.94225 3.10755 1.84776 1.84776 1.84776 1.84776 3.29066 3.43925 7.25448 4.1109 3.98742 3.7282 3.59159 3.44956 3.30144 3.53345 3.75114 3.41421 3.26448 3.10755 2.94225 3.17349 3.41421 3.26448 3.10755 1 0 1 1.41421 1.95664 2.19737 2.58009 2.19737 2.41421 2.871 2.94225 2.58009 2.7671 2.94225 3.10755 3.53345 3.67223 3.80595 3.93513 3.80595 4.18154 4.39474 4.8608 1.95664 2.19737 1.84776 1.84776 1.84776 2.101 2.32685 1.84776 1.84776 3.06826 3.22711 3.37849 3.52338 6.13412 6.80325 6.77274 3.353 4.22237 4.27114 4.31936 4.36704 2.97127 6.92395 6.9538 10.968 10.9223 10.9033 3.8377 10.8383 10.8191 10.8 10.7808 10.707 3.26448 2.49853 1.84776 3.88215 4.23078 4.18154 4.34735 4.23078 2.64575 1.55377 1.68179 3.353 5.15329 4.85349 4.81063 1.84776 3.98742 3.82843 4.50707 4.29945 1.84776 2.61313 2.79793 5.98916 6.02364
2.7671 2.49853 6.24833 6.2151 4.68728 5.26573 5.08915 2.32685 2.101 1.84776 1.84776 3.75114 3.61539 3.47434 3.49895 3.353 3.04017 2.871 2.69122 2.871 2.69122 2.7671 2.69122 1.84776 2 2.101 1.84776 1.55377 1.68179 1.55377 1.55377 1.84776 2.101 2.32685 2.53263 1.73205 2 2.23607 2.44949 2.64575 1.41421 1.41421 1.41421 1.73205 2 2.41421 5.72083 5.80757 1 0 1 1.84776 1.41421 1.55377 1.84776 1.84776 1.84776 2.32685 2.53263 2.871 3.17349 2.7671 2.49853 2.69122 2.871 2.49853 4.41421 7.13439 7.16832 7.13937 3.49895 3.55765 3.49895 2.101 1.84776 3.04017 7.22587 6.36049 5.54968 5.76309 5.60221 6.44642 6.41421 5.32774 5.23305 2.61313 2.41421 2.19737 4.68728 4.73126 4.68728 4.64288 4.66132 4.32758 3.78335 3.6488 3.59159 3.53345 3.41421 3.10755 2.58009 3.10755 3.04017 3.20041 3.04017 1.55377 2.44949 2.53263 4.46088 4.50707 4.55279 4.59806 4.70554 4.81063 3.43925 3.37849 2.82843 1.84776 3.43925 4.39474 2.49853 2.28968 2.32685 2.53263 2.32685 2.101 1.84776 1.41421 1.73205 2 2.23607 2.44949 2.97127 8.30131 8.27632 1.73205 1.84776 2.19737 2.7671 2.84096 6.88152 6.60511 6.57368 1.84776 3.52338 8.04795 3.93513 3.69552 2.53263 2.32685 2.101 1.84776 1.84776 1.95664 1.68179 2.49853 4.69799 4.59032 2.97127 2.79793 2.61313 2.41421 2.19737 1.95664 1.95664 2.69122 2.7671 2.41421 2 1.73205 1.41421 2.101 1.84776 1.55377 1.18921 1.41421 1 4.36704 1.55377 1.95664 1.95664 1.95664 1.68179 1.55377 2.79793 2.19737 2.32685 1.95664 1.68179 1.55377 1.73205 2.101 1.84776 2 1.73205 2.41421 2.19737 2.101 1.73205 2.101 2.19737 2.41421 2.49853 2.49853 2.58009 2.94225 3.10755 6.58132 3.37849 3.22711 3.06826 2.90073 2.72291 2.53263 2.32685 2.101 1.84776 2.41421 2.19737 5.59587 5.50579 5.46804 5.43004 5.33716 5.24264 5.282 5.37583 5.46804 5.55873 5.64796 2.79793 2.871 3.04017 1.84776 2.101 3.61539 3.75114 4.29945 4.34735 4.39474 4.50707 4.61668 4.72374 4.55279 4.59806 4.70554 1.68179 4.85349 5.49019 1.84776 2.82843 2.90073 1.84776 3.20041 3.26448 2.871 5.63906 5.62644 5.46154 6.61808 6.58671 3.49895 3.43925 3.01182 3.30144 3.14635 3.17349 3.01182 1.55377 1.41421 2.49853 3.17349 2.82843 3.04017 3.20041 3.04017 1.84776 1.95664 1.84776 1.18921 1.55377 1.84776 2.101 2.49853 2.69122 2.32685 2.53263 2.72291 2.90073 3.06826 3.22711 3.49895 7.28297 7.3513 4.03902 3.91327 3.6488 3.50909 3.7282 3.93513 3.61539 2.49853 2.49853 2.7671 3.38899 3.61539 2.101 1.84776 1.55377 1.18921 1 1.18921 1.55377 1.84776 2.28968 1.84776 2.101 2.61313 2.69122 2.28968 2.61313 2.69122 2.871 3.32732 3.47434 3.61539 3.75114 3.61539 4.00887 4.23078 4.71309 4.81801 1.84776 1.84776 2.101 1.41421 1.73205 2 2.23607 2.44949 2.79793 2.97127 3.13503 3.29066 6.08618 6.16779 6.66752 3.13503 3.06826 4.10225 4.15243 4.20201 1.84776 2.79793 2.871 6.88152 6.91155 7.02534 10.9223 10.9033 10.8843 7.18317 7.21195 7.24061 10.7536 10.7343 1.84776 3.95687 4.61668 4.34735 4.50707 4.46088 4.34735 2.82843 1.84776 1.95664 2.05977 5.19332 5.28872 4.99706 4.95544 4.1109 4.16097 4.61668 4.41421 2.101 1.55377 2.871 6.12012 6.63103
3.01182 2.49853 2.19737 6.13412 6.10026 4.53391 5.12969 5.03127 4.48007 4.36704 4.25101 4.13171 4.00887 3.41421 3.26448 3.20041 3.04017 2.871 2.69122 2.49853 2.49853 2.41421 2.49853 2.41421 1.73205 1.84776 1.55377 1.18921 1.55377 1.84776 2.101 1.73205 2 2.23607 2.61313 2.79793 1.84776 1.84776 1.84776 1.84776 1.55377 1.55377 1.55377 1.84776 2.101 2.32685 1.41421 5.7718 1.18921 1 1.18921 1.55377 1.55377 1.84776 1.41421 1.73205 2 2.23607 2.61313 2.94225 2.49853 2.19737 2.41421 2.61313 2.19737 1.84776 4.36704 7.06396 7.03458 7.20906 3.75114 3.69552 2.23607 7.20906 7.23773 7.26629 7.29474 6.39297 6.31427 6.16779 6.84098 6.36839 6.33578 6.18981 5.27247 5.17677 5.07927 4.97986 4.87842 4.83578 4.79276 4.81063 4.488 3.96584 3.8377 3.78335 3.7282 3.61539 3.32732 2.84096 3.32732 3.26448 3.41421 3.26448 1.95664 2.72291 2.64575 4.52607 4.5716 1.41421 1 0 1 1.41421 1.73205 3.52338 3.4641 3.52338 3.58168 2.7671 2.58009 2.61313 2.79793 2.72291 1.73205 1.41421 1 1.18921 1.55377 1.84776 2.101 2.97127 3.13503 8.27632 1.55377 1.41421 1.84776 2.49853 2.58009 2.49853 6.80848 6.83883 6.49717 1.84776 3.37849 7.93354 7.95961 3.63904 3.49895 2.23607 2 2.53263 2.32685 2.101 1.84776 2.28968 2.19737 4.63522 4.52607 2.871 2.69122 2.49853 2.28968 1.18921 2.19737 3.10755 2.69122 2.32685 2.101 1.55377 1.18921 2.32685 1.73205 1.73205 1.41421 1 0 4.41421 1.84776 1.84776 1.84776 1.84776 1.55377 1.18921 2.61313 2.28968 2.101 1.84776 1.55377 1.18921 1.41421 1.84776 1.55377 1.73205 1.41421 2.19737 1.95664 1.84776 1.73205 1.84776 2.101 2.19737 2.19737 2.49853 2.69122 2.871 3.04017 6.54977 4.40616 4.29118 4.17303 4.05145 3.92609 3.79661 3.66254 3.52338 3.37849 3.22711 3.06826 2.90073 2.72291 2.53263 1.73205 1.41421 1 1.41421 1.73205 2 2.23607 5.61117 5.69959 5.78665 3.10755 3.26448 1.84776 2.101 3.69552 3.82843 3.95687 4.08128 4.20201 4.31936 4.43361 4.54498 4.65369 4.81063 4.85349 4.89597 5.58051 1.84776 3 3.06826 2.101 3.353 3.41421 3.04017 5.72704 5.71462 5.55234 6.6932 1.84776 3.63904 3.2381 3.50909 3.36359 3.38899 3.2381 1.95664 1.84776 1.41421 1.84776 3.41421 4.1109 3.98742 3.47434 2.49853 2.28968 2.19737 1.41421 1.55377 1.18921 1.55377 1.84776 2.28968 2.19737 2.41421 2.61313 2.79793 2.97127 3.13503 3.29066 3.96584 3.91327 7.58465 7.65029 3.96584 3.70512 3.91327 4.1109 3.80595 3.32732 3.17349 3.01182 3.59159 3.80595 2.41421 2.19737 2.101 1.84776 1.55377 1.41421 1.55377 1.18921 1.95664 1.41421 1.55377 1.84776 2.41421 1.95664 2.32685 2.41421 2.19737 3.10755 3.26448 3.41421 3.55765 3.41421 3.82843 4.06021 4.56059 4.66894 4.77483 4.87842 4.97986 5.16018 5.25618 1.84776 2.101 2.32685 2.53263 2.72291 2.90073 3.06826 3.353 6.12012 6.62345 6.5921 1.73205 2.90073 3.9785 4.03022 3.37849 1.55377 2.61313 2.69122 4.39474 4.5716 6.9538 6.98352 7.11323 7.14228 7.11323 1.55377 7.21195 7.28095 10.7808 10.7616 10.7423 4.76738 4.72374 4.61668 4.50707 4.46088 3 2.101 2.19737 2.28968 2.49853 5.38243 5.47454 5.05533 5.09613 4.76738 4.72374 4.52607 2.32685 1.84776 1.95664 6.20128 6.66219
2.84096 2.7671 2.19737 1.84776 6.01774 4.42226 4.37517 4.69799 4.65369 4.08128 3.95687 3.82843 3.95687 3.82843 3.69552 3.55765 3.41421 3.26448 3.10755 2.94225 2.7671 2.19737 2.101 2.19737 2.101 1.55377 1.18921 1.55377 1.84776 2.101 2.19737 2.53263 1.84776 2.32685 2.53263 2.871 3.04017 2.19737 2.101 2.32685 1.84776 1.84776 1.41421 1.18921 1.55377 1.84776 1.84776 5.80757 1 0 1 1.41421 1.41421 1.95664 2.19737 1.84776 2.101 2.32685 2.69122 2.19737 1.84776 1.84776 2.101 1.84776 1.84776 2.101 4.31936 6.99282 6.96314 7.3746 7.30649 7.27809 7.30649 7.27809 6.42757 6.39527 6.3628 6.21746 6.0403 5.95695 6.81064 6.73682 6.66219 6.52352 5.52778 5.43658 5.34381 5.24941 5.15329 5.05533 4.95544 4.64288 4.14031 4.01773 3.96584 3.91327 3.93513 3.80595 3.75114 3.61539 3.47434 3.61539 3.47434 2.28968 2.97127 2.90073 4.67969 4.63522 1.84776 1.55377 1.18921 1 1.41421 1.73205 2 2.23607 3.60555 3.66254 3.01182 2.84096 2.871 3.13503 2.97127 2.101 1.55377 1.18921 1.41421 1.55377 1.84776 2.101 2.32685 3.13503 8.27632 8.21568 1.55377 1.41421 2.19737 2.28968 2.19737 2.49853 6.73464 6.76532 6.41975 1.84776 3.22711 3.9785 7.80648 7.83296 3.55765 3.41421 2.79793 2.61313 2.101 1.84776 1.55377 1.18921 1.95664 1.84776 4.5716 2.101 2.19737 1.95664 1.68179 1.55377 1.41421 3.26448 3.53345 2.41421 1.95664 1.68179 1.55377 2.53263 2.101 1.84776 1.55377 1.18921 1 4.36704 1.95664 1.41421 1.41421 1.41421 1.41421 1.55377 1.84776 2.19737 1.95664 1.73205 1.41421 1 1.55377 1.55377 1.18921 1.41421 1 1.95664 1.68179 1.55377 1.41421 1.73205 1.84776 1.84776 2.19737 2.41421 2.28968 2.49853 2.58009 6.38184 4.15243 4.03022 3.90418 3.77394 3.63904 3.49895 3.353 3.20041 3.04017 2.871 2.69122 2.49853 2.28968 2.44949 2.23607 2 1 1.41421 1.73205 2 2.23607 2.44949 2.64575 5.69959 5.78665 3.32732 3.47434 3.61539 1.84776 1.84776 1.84776 2.101 2.32685 2.53263 2.72291 2.90073 4.69799 4.80324 4.90623 5.70582 5.6694 1.84776 3.16228 3.22711 2.32685 3.49895 3.55765 3.20041 5.81369 5.80145 5.64167 6.7675 2.101 3.77394 3.70512 3.56762 3.59159 3.44956 2.28968 2.19737 1.84776 1.73205 1.55377 3.47434 4.16097 1.84776 1.55377 1.18921 1.95664 1.84776 1.95664 1.84776 1.55377 1.18921 1.55377 1.84776 1.95664 2.19737 2.41421 2.61313 3.17349 3.44956 3.59159 3.7282 2.7671 2.7671 7.62317 4.01773 4.21045 4.27945 3.98742 3.88215 3.75114 3.61539 4.1109 3.98742 2.69122 2.49853 2.41421 2.19737 1.95664 2.32685 2.101 1.84776 1.95664 2.05977 1 1.41421 1.55377 2.19737 2 2.101 1.84776 2.871 3.04017 3.20041 3.353 3.20041 3.63904 3.88215 4.40281 4.51495 4.62437 3.67223 3.80595 3.93513 4.06021 5.29543 5.38903 1.84776 1.84776 1.84776 1.84776 1.84776 2.101 6.00347 6.08618 6.30864 5.742 5.70582 2.72291 3.85077 3.90418 3.22711 2.32685 2.53263 2.49853 4.27945 4.46088 5.71204 5.86991 5.90509 2.44949 2.53263 2.32685 2.53263 7.21195 7.28095 7.3493 10.7343 10.715 4.76738 4.66132 4.61668 3.22711 3.16228 1.84776 2.41421 2.49853 2.69122 2.871 5.56512 10.8079 10.5741 10.5545 10.4675 10.4477 10.4675 10.4873 10.507 6.23459 6.6932
3.36359 3.30144 2.49853 1.84776 5.93407 4.30771 4.25936 4.21045 4.54498 4.43361 3.29066 3.77394 3.63904 3.49895 3.353 3.20041 3.04017 2.871 2.69122 2.61313 2.69122 2.49853 2.41421 1.73205 1.84776 1.55377 1.84776 2.101 1.73205 2.19737 2.41421 2.7671 2.79793 2.19737 2.61313 2.79793 3.10755 3.353 2.49853 2.53263 2.101 2.101 1.73205 1.55377 1.68179 1.95664 2.32685 5.89304 1.41421 1 1.41421 1.41421 1.55377 1.84776 2.28968 2.49853 1.84776 1.84776 1.84776 1.73205 2 2.23607 2.44949 2.64575 2.82843 3 4.27114 6.92095 6.89096 6.86084 6.78757 6.62567 6.54977 6.47298 6.39527 2.05977 4.71621 4.51821 2.41421 5.92208 5.83704 5.75074 5.66313 6.55519 6.41421 5.43004 5.33716 5.24264 5.14639 5.04829 4.94826 4.84616 4.74186 4.63522 4.52607 4.41421 4.29945 4.18154 4.06021 3.93513 3.80595 3.67223 2.58009 3.20041 3.13503 4.82843 4.78534 2.19737 2.101 1.84776 1.55377 1.41421 1.73205 1.55377 1.84776 2.32685 2.53263 3.79661 3.63904 3.49895 3.353 3.29066 2.32685 1.95664 1.68179 1.55377 1.41421 1.55377 1.41421 1.73205 2 3.29066 8.21568 1.84776 1.55377 1.84776 1.95664 1.84776 2.19737 2.7671 6.65998 6.37396 6.34139 1.84776 3.06826 3.85077 3.71866 7.76887 7.79548 3.47434 3.32732 2.79793 2 2.101 1.84776 1.55377 1.18921 1.55377 4.61668 4.50707 2.28968 2.19737 1.95664 1.84776 1.41421 1.84776 3.67223 2.49853 2.05977 1.95664 1.84776 2.90073 2.19737 1.95664 1.84776 1.55377 1.41421 4.41421 1.84776 1.84776 1.55377 1.55377 1.55377 1.68179 1.41421 1.41421 1.84776 1.55377 1.55377 1.95664 1.84776 1.41421 1 1 0 1.84776 1.55377 1.18921 1 1.41421 1.41421 1.84776 2.101 1.95664 2.19737 2.28968 2.49853 6.41421 3.71866 3.58168 3.43925 3.29066 3.13503 2.97127 3.75114 3.49895 3.353 3.20041 3.04017 2.871 2.69122 2.49853 2.28968 2.32685 1.41421 1.41421 1.73205 2 2.23607 2.44949 2.64575 2.82843 5.69959 5.78665 5.87242 3.67223 3.80595 3.93513 2.19737 2.41421 1.84776 1.84776 1.84776 1.84776 1.84776 1.84776 4.94826 5.04829 5.75692 2.101 3.31662 3.37849 2.53263 3.63904 3.69552 3.353 5.89907 5.76564 5.72961 6.84098 2.32685 4.25101 3.8377 3.78335 3.6488 2.58009 2.49853 2.19737 2.101 1.95664 1.84776 3.61539 4.21045 1.95664 1.68179 1.55377 2.19737 2.28968 2.19737 1.73205 1.84776 1.55377 1.18921 1.55377 2.05977 1.95664 2.49853 2.69122 3.01182 2.7671 2.49853 2.49853 2.49853 2.49853 7.59595 7.66149 4.55279 4.16097 4.06021 3.93513 1.84776 1.55377 4.16097 2.94225 2.7671 2.69122 2.49853 2.28968 2.61313 1.73205 1.41421 1 0 1 0 1 1.41421 1.95664 1.73205 1.41421 2.61313 2.79793 2.97127 3.13503 2.97127 3.43925 3.69552 4.23917 3.50909 3.41421 3.47434 3.61539 3.17349 3.32732 4.00887 4.13171 5.42732 5.51868 5.60855 5.697 5.7841 5.86991 5.95448 6.03787 6.26204 6.22888 5.37583 5.6175 2.53263 3.71866 3.77394 3.06826 2.101 2.19737 4.1109 4.16097 4.34735 5.62383 5.7841 2.61313 2.53263 2.32685 2.101 4.42226 4.40281 4.51495 7.37743 7.3493 10.7343 10.6876 1.95664 1.84776 3.37849 3.31662 1.84776 2.19737 10.6682 10.6876 10.7343 10.7808 10.8271 3.16228 3.43925 3.49895 3.43925 3.49895 3.55765 10.5545 10.5741 10.8238
3.30144 3.14635 3.07982 2.19737 5.84921 4.19003 1.95664 4.08998 4.03902 4.38664 4.27114 3.06826 2.90073 2.72291 2.53263 2.32685 2.101 1.84776 2.19737 2.41421 2.32685 2.101 2.19737 2.101 1.55377 1.18921 1.55377 2.19737 2.41421 2.101 2.32685 2.69122 3.01182 3.04017 2.49853 2.871 3.04017 3.32732 3.55765 3.06826 2.32685 2.32685 2 1.84776 1.95664 2.05977 2.53263 5.97728 1.73205 1.41421 1.73205 1.73205 1.55377 1.95664 2.19737 2.58009 2.7671 2.19737 2.19737 1.84776 2.101 2.32685 2.53263 2.72291 2.90073 3.06826 4.31936 6.89096 1.68179 1.84776 2.32685 2.19737 2.41421 2.19737 2.19737 1.95664 4.60897 4.40616 4.29118 2.101 1.84776 1.84776 5.62644 5.53686 6.44642 6.36839 6.28938 6.34931 6.27006 6.18981 6.10849 6.02609 5.94253 5.85779 5.7718 5.68451 5.59587 5.50579 5.41421 5.32106 5.22625 5.12969 5.03127 4.93089 4.97272 4.93089 2.49853 2.41421 2.32685 1.41421 1.84776 2.101 1.84776 2.101 1.95664 2.19737 2.61313 3.9785 3.85077 2.23607 2 1.73205 2.53263 2.05977 1.95664 1.84776 1.73205 1.84776 1.18921 1.55377 1.84776 3.353 8.1546 1.55377 1.18921 1.55377 1.41421 1.84776 2.49853 2.58009 6.52127 6.29503 2.79793 2.32685 2.90073 3.71866 3.58168 3.353 7.62317 7.65029 7.67731 2.871 2.69122 2.19737 1.73205 1.41421 1.55377 1.18921 1 4.55279 2.49853 2.28968 1.55377 1.84776 1.73205 1.84776 3.80595 2.69122 2.28968 2.19737 3.13503 3.06826 2.28968 2.19737 1.73205 1.84776 1.73205 4.36704 2.19737 1.95664 1.68179 1.84776 2.19737 2.19737 1.84776 1.84776 1.55377 1.18921 1.84776 2.19737 1.55377 1.18921 1.41421 1.41421 1 1.73205 1.41421 1 0 1 1.41421 1.73205 1.55377 1.84776 1.95664 2.19737 7.12029 6.44642 4.74186 3.52338 3.37849 3.22711 4.29945 4.18154 4.06021 3.63904 3.49895 3.353 3.20041 3.04017 2.32685 2.101 1.84776 1.95664 1.84776 1.41421 1.73205 2 2.23607 2.44949 2.64575 2.82843 3 3.16228 5.78665 5.87242 5.95695 3.98742 4.1109 4.23078 4.34735 4.46088 4.5716 4.67969 4.78534 4.88871 1.84776 5.08915 5.84313 5.80757 3.4641 3.52338 2.72291 3.77394 3.82843 3.49895 5.98323 5.85172 5.81622 6.91368 4.41421 4.36704 3.96584 3.91327 2.84096 2.7671 1.84776 2.41421 2.49853 2.19737 1.41421 3.75114 4.25936 2.05977 1.95664 1.84776 2.41421 2.49853 2.101 2.19737 2.28968 1.84776 1.55377 1.18921 1.55377 2.19737 2.41421 2.28968 2.49853 2.19737 2.19737 2.19737 2.19737 2.19737 2.19737 7.63441 4.59806 4.23078 4.1109 1.84776 1.55377 4.32758 4.27945 3.01182 2.94225 2.7671 2.58009 2.871 2.101 1.84776 1.73205 1.41421 1 1.18921 1 1.18921 1.55377 1.84776 2.101 2.32685 2.53263 2.72291 2.90073 2.72291 3.22711 3.49895 4.06895 3.30144 3.20041 3.26448 3.32732 3.47434 3.61539 3.75114 3.88215 4.00887 4.13171 4.25101 4.36704 4.44161 4.55279 4.59806 5.98916 6.2151 6.18168 1.84776 5.282 5.52778 2.32685 3.58168 3.63904 2.90073 1.84776 1.95664 3.98742 4.03902 4.23078 5.5342 5.697 2.23607 2.32685 2.101 1.84776 4.23917 4.35552 4.40281 4.79276 7.28095 7.3493 10.7343 10.715 1.84776 3.52338 3.4641 10.6763 10.6957 10.715 3.353 3.29066 3.22711 3.16228 3 3.16228 1.84776 2.19737 2.49853 3.41421 3.47434 3.53345 10.8429
6.00347 3.07982 2.91295 2.84096 5.76309 4.14031 4.01773 1.55377 3.91327 3.85999 4.22237 4.10225 3.52338 3.37849 3.22711 3.06826 2.90073 2.72291 2.101 1.84776 1.55377 1.84776 1.73205 1.84776 1.55377 1.84776 2.101 2.49853 2.94225 2.69122 2.41421 2.61313 2.94225 3.2381 3.26448 2.7671 3.20041 3.26448 3.53345 3.22711 2.53263 2.72291 2.23607 2.101 1.84776 2.28968 2.72291 6.06036 1.84776 1.73205 2 2 1.84776 1.95664 2.28968 2.49853 2.84096 2.28968 2.49853 2.49853 2.69122 2.871 3.04017 3.20041 3.353 3.49895 4.36704 6.86084 1.55377 1.55377 1.84776 1.84776 1.84776 2.101 1.84776 1.84776 4.56382 4.45291 4.24264 4.12311 4 3.87298 3.74166 5.49933 5.40765 5.31438 5.21945 5.12276 5.02421 4.92368 4.82106 4.71621 4.60897 4.49918 4.38664 4.27114 4.15243 4.03022 3.90418 3.77394 3.63904 3.49895 3.353 3.20041 3.04017 2.871 2.69122 2.61313 1.84776 1.18921 1 2.19737 2.41421 2.19737 2.41421 2.28968 2.69122 4.03022 1.84776 1.55377 1.55377 1.18921 2.72291 2.28968 2.19737 2.101 2.19737 2.101 1.55377 1.68179 1.95664 3.41421 8.12916 2.101 1.84776 1.55377 1.41421 2.19737 2.28968 2.19737 6.44414 6.2151 2.61313 2.53263 2.72291 3.58168 3.43925 3.20041 3 2.90073 7.61191 7.63907 2.7671 2.41421 2.19737 1.95664 1.84776 1 0 4.66132 2.58009 1.55377 1.84776 2.101 2 2.101 3.93513 2.871 2.49853 3.353 3.29066 2.58009 2.49853 1.84776 2.32685 2.101 2 4.48007 2.28968 2.05977 1.95664 2.101 2.61313 2.19737 2.19737 1.95664 1.68179 1.55377 2.101 2.41421 1.68179 1.55377 1.73205 1.73205 1.41421 2 1.55377 1.41421 1 1.18921 1.55377 1 1.41421 1.55377 1.84776 7.02028 7.09114 5.78665 6.33578 4.67969 4.5716 4.46088 4.34735 3.29066 3.13503 2.97127 2.79793 2.61313 2.41421 2.871 2.69122 2.49853 2.28968 1.41421 1.55377 1.41421 1.73205 2 2.23607 2.44949 2.64575 2.82843 3 3.16228 3.31662 3.4641 5.87242 5.95695 6.06036 6.14231 6.22318 5.89907 6.03198 6.06622 6.10026 4.93089 5.03127 5.12969 6.41975 5.89304 5.85779 5.96291 3.95687 3.90418 3.95687 3.63904 6.06622 5.93655 5.90156 6.98563 4.52607 4.27945 4.16097 3.17349 2.28968 2.19737 2.69122 2.61313 2.69122 1.84776 1.73205 3.88215 4.30771 2.28968 2.19737 1.84776 2.61313 2.69122 2.61313 2.58009 2.19737 1.73205 1.84776 1.55377 1.84776 2.101 1.95664 2.19737 1.84776 1.84776 1.84776 1.84776 1.84776 1.84776 2.101 7.60724 4.91346 4.81063 2.19737 1.95664 4.488 4.44161 3.2381 3.17349 3.01182 2.84096 3.10755 2.41421 2.19737 2.101 1.84776 1.95664 1.68179 1 0 1 1.41421 1.73205 2 2.23607 2.44949 2.64575 2.44949 3 3.29066 3.89129 3.07982 2.97127 3.04017 3.10755 2.94225 3.10755 3.26448 3.41421 3.59159 3.6488 3.78335 3.91327 4.27945 4.39474 2.49853 4.488 4.59806 6.13412 1.95664 1.84776 5.18647 5.43658 2.101 3.43925 3.49895 2.72291 1.55377 3.26448 3.93513 3.91327 2.90073 5.44311 5.60855 2 2.101 1.84776 4.06895 4.11953 4.23917 1.95664 2.19737 2.79793 7.28095 7.30934 10.7616 10.7423 10.723 10.7037 10.723 3.20041 3.04017 2.97127 3.13503 1.84776 3 2.82843 3 1.84776 2.19737 2.49853 2.7671 2.84096 3.38899 3.53345
5.96887 5.88451 2.84096 2.65915 5.67567 5.63906 3.96584 3.8377 3.78335 3.7282 3.67223 4.15243 3.77394 3.63904 3.49895 2.79793 2.61313 2.64575 2.44949 2 1.73205 1.41421 1.41421 1.55377 1.18921 1.55377 1.84776 2.101 2.7671 3.17349 2.94225 2.69122 2.871 3.17349 3.44956 3.47434 3.20041 3.41421 3.67223 4.10225 3.43925 2.90073 2.44949 2.53263 2.101 2.49853 2.90073 6.14231 2.101 2.32685 2.23607 2.23607 1.84776 2.19737 2.49853 3.07982 3.01182 2.37841 2.58009 2.7671 2.7671 2.94225 3.10755 3.26448 3.41421 3.55765 4.41421 6.83058 1.41421 1.41421 4.89898 4.79583 4.69042 4.58258 4.47214 4.3589 4.24264 4.40616 4.29118 4.17303 4.05145 3.92609 3.79661 3.66254 3.52338 3.37849 3.22711 3.06826 2.90073 2.72291 2.53263 2.32685 2.101 1.84776 1.84776 1.84776 1.84776 2.32685 2.101 1.84776 2.53263 2.32685 2.101 1.84776 2.69122 2.49853 2.41421 2.19737 1.68179 1.55377 1.41421 1.55377 2.49853 2.69122 2.49853 2.69122 2.7671 4.08128 3.95687 3.82843 3.77394 3.63904 2.90073 2.49853 2.58009 2.49853 2.41421 1.41421 1.84776 1.95664 2.19737 3.55765 8.06742 1.84776 1.55377 1.18921 1.84776 1.95664 1.84776 6.33346 6.36608 6.13412 2.41421 2.32685 2.53263 3.43925 3.29066 3.04017 2.82843 2.72291 2.79793 7.57333 7.49084 7.46314 2.28968 2.19737 1.55377 1.41421 1 4.70554 1.95664 1.84776 2.101 2.32685 2.23607 2.32685 4.06021 2.94225 2.69122 3.49895 2.84096 2.7671 2.19737 2.101 2.53263 2.32685 2.23607 4.59032 2.49853 2.28968 1.84776 2.32685 2.97127 2.49853 2.28968 2.05977 1.95664 1.84776 2.32685 2.61313 1.95664 2.101 2.23607 2 2.32685 1.95664 1.84776 1.55377 1.41421 1.55377 1 0 1 1.41421 6.91882 6.99071 6.91882 6.94869 5.66313 5.62644 3.66254 3.52338 3.37849 3.22711 2.90073 2.72291 2.53263 2.101 2.32685 2.101 1.84776 1.73205 2.05977 1.95664 1.18921 1.55377 1.41421 1.73205 2 2.23607 2.44949 2.64575 2.82843 3 3.16228 3.43925 3.58168 3.71866 5.33716 5.43004 5.05533 5.20981 3.38899 2.91295 6.06622 6.14809 6.22888 6.30864 6.38741 6.46521 6.54209 5.97728 6.08034 6.11431 4.08128 3.77394 6.14809 6.02019 5.98569 7.05684 4.44161 4.32758 2.58009 2.37841 2.28968 2.19737 2.871 2.94225 2.871 2.101 2 4.00887 4.42226 2.49853 1.84776 2.101 2.79793 2.871 2.79793 2.7671 2.101 2.19737 2.101 1.55377 1.18921 1.55377 1.84776 1.73205 2 2.23607 2.44949 2.64575 2.82843 3 3.16228 7.57996 7.64564 4.85349 2.28968 4.64288 4.59806 3.44956 3.38899 3.2381 3.07982 3.32732 3.26448 2.49853 2.41421 2.49853 2.28968 1.84776 1.55377 1.41421 1 1.18921 1.55377 1.84776 2.101 1.84776 2.101 2.72291 2.90073 3.06826 3.70512 2.84096 2.72291 2.79793 2.871 2.69122 2.7671 2.84096 3.01182 3.38899 3.44956 3.2381 3.38899 3.80595 3.85999 2.19737 1.68179 1.95664 4.55279 6.10026 6.01774 1.84776 5.08915 5.34381 1.84776 3.29066 3.353 2.53263 1.55377 3.20041 3.7282 3.78335 2.72291 5.35046 5.51868 4.25936 1.84776 3.89129 3.94415 4.06895 4.19003 1.84776 2.41421 2.871 3.04017 7.28095 7.3493 10.7887 10.8079 3.17349 3.10755 3.04017 2.97127 2.79793 2.97127 2.90073 2.82843 2.64575 2.82843 1.84776 2.19737 2.49853 3.10755 3.17349 3.32732 3.17349
4.43361 5.84921 2.7671 2.58009 2.37841 5.54968 5.45885 5.36647 3.6488 3.59159 3.53345 3.47434 3.2381 3.30144 3.43925 3.29066 3.13503 2.97127 2.90073 2 1.73205 1.41421 1.41421 1.55377 1.84776 2.101 2.32685 2.53263 2.41421 3.01182 3.38899 3.17349 2.94225 3.10755 3.38899 3.6488 3.67223 3.55765 3.61539 3.85999 4.27114 3.79661 2.53263 2.72291 2.32685 2.69122 2.7671 6.22318 2.32685 2.53263 2.53263 2.44949 2.101 2.19737 2.69122 3.2381 1.41421 2.58009 2.65915 2.84096 3.01182 1.84776 1.84776 1.84776 1.84776 4.34735 4.46088 6.86084 1.84776 5.04125 4.94107 4.83882 4.73437 4.62755 4.51821 4.40616 4.29118 4.17303 4.05145 3.92609 3.79661 3.66254 3.52338 3.37849 3.22711 3.06826 2.90073 2.72291 2.53263 2.32685 2.101 1.84776 1.84776 2.19737 2.19737 2.19737 2.61313 2.41421 2.19737 2.79793 2.61313 2.41421 2.19737 1.55377 2.7671 2.69122 2.49853 2.05977 1.95664 1.84776 1.73205 1.84776 1.95664 2.7671 2.94225 2.871 2.101 1.84776 1.55377 1.18921 1 3.77394 2.7671 2.69122 2.7671 2.69122 1.84776 1.41421 1.84776 1.95664 2.05977 3.61539 8.09305 2 1.73205 1.41421 1.55377 1.41421 1.95664 6.25401 6.08618 6.05206 2.19737 2.101 2.32685 3.29066 3.13503 2.871 2.64575 2.53263 2.61313 4.06021 3.90418 7.39584 7.42379 7.45164 1.84776 1.55377 1.41421 4.81063 2.19737 1.84776 2.32685 2.53263 2.61313 2.53263 4.18154 3.10755 2.871 3.82843 3.01182 2.49853 2.41421 2.32685 2.72291 2.53263 2.44949 4.69799 2.69122 2.49853 2.41421 2.53263 3.29066 2.58009 2.37841 2.28968 1.84776 2.101 2.53263 2.79793 2.19737 2.53263 2.32685 2.61313 2.28968 2.19737 1.95664 1.84776 1.95664 1.73205 1.41421 1 6.84617 6.81585 6.88882 2.871 5.60221 6.58671 6.61808 5.53686 3.85077 3.71866 3.58168 3.43925 3.29066 3.13503 3.06826 2.23607 2 1.73205 1.41421 1.41421 1.55377 1.68179 1.55377 1.68179 1.95664 1.84776 2.101 2.32685 2.53263 2.72291 2.90073 3.06826 3.22711 3.37849 3.52338 5.20299 5.29821 4.91346 5.07227 3.17349 2.65915 2.84096 3.01182 3.01182 3.01182 3.17349 3.32732 2.7671 6.51036 6.58671 6.66219 6.19554 6.16203 3.90418 6.22888 6.10267 6.06864 7.12734 4.488 2.84096 2.65915 2.58009 2.49853 1.84776 3.04017 3.10755 1.84776 2.32685 4.08128 4.13171 4.53391 2.19737 1.84776 2.32685 2.97127 3.04017 3.53345 3.17349 2.49853 2.41421 1.73205 1.84776 1.55377 1.18921 1.55377 1.84776 2.101 2.32685 2.53263 2.72291 2.90073 3.06826 3.22711 3.37849 7.67268 4.89597 4.79276 4.74935 3.6488 3.59159 3.44956 3.30144 3.53345 3.47434 2.7671 2.69122 2.7671 2.58009 2.19737 1.95664 1.84776 1.55377 1.41421 1.55377 1.68179 1.95664 2.19737 2.41421 2.61313 2.79793 3.10755 3.50909 2.58009 2.44949 2.53263 2.61313 2.41421 2.49853 2.58009 2.7671 3.17349 3.2381 3.01182 3.26448 3.61539 3.67223 1.68179 1.95664 1.55377 1.84776 4.50707 4.61668 5.93407 1.55377 4.98994 5.24941 3.06826 3.13503 3.20041 2.79793 2.871 3.04017 3.59159 3.6488 2.53263 5.25618 5.29543 4.14031 3.70512 3.7606 3.89129 4.01773 1.84776 2.101 2.61313 2.79793 2.97127 3.13503 7.32106 7.38904 3.17349 3.10755 2.7671 2.49853 2.79793 2.72291 2.53263 2.72291 2.64575 2.44949 2.64575 1.84776 2.19737 2.871 2.94225 2.7671 2.94225 3.10755
