72.8533 84.7169 90.1461 93.0136 89.6793 89.0121 90.5585 90.3127 90.6545 104.754 117.225 148.928 204.748 229.041 235.77 288.074 303.562 295.857 289.467 282.91 279.564 265.329 251.861 260.971 297.44 359.386 421.577 420.308 423.761 420.334 433.799 476.087 523.323 558.916 588.759 635.288 682.218 705.569 732.628 782.753 825.814 763.03 665.991 613.527 583.175 548.775 579.935 598.825 606.154 620.042 634.908 632.586 622.289 640.843 663.891 685.901 675.435 606.655 591.073 590.693 528.028 436.43 401.19 383.533 369.064 362.648 364.154 380.29 402.983 420.646 430.404 420.232 394.282 383.823 371.599 347.766 328.11 313.769 284.734 265.202 249.963 237.18 234.343 244.561 246.048 258.225 263.076 274.579 291.075 291.808 292.573 289.452 288.559 290.952 291.117 297.165 302.307 313.298 328.035 343.802 355.599 362.201 352.27 337.812 348.787 314.331 233.552 201.25 184.184 153.437 121.727 98.1395 68.1353 49.9129 46.4302 63.6301 75.2756 82.7285 71.3837 58.7626 48.4896 28.5632 17.7387 15.9022 14.9876 12.6117 8.18906 3.68555 2.83964 3.34449 3.30954 4.74789 5.78604 11.0012 15.4427 16.921 20.089 26.2895 35.6051 41.9628 47.8602 53.7725 56.0569 67.3876 84.8272 120.696 140.185 139.589 107.956 89.0375 105.763 126.24 137.086 134.756 126.533 112.83 110.653 108.393 104.025 96.8485 84.751 73.4207 67.2633 61.536 69.4462 78.2769 73.066 35.0188 25.4127 27.8673 41.1982 66.6939 103.23 144.058 178.07 204.91 240.553 281.2 317.419 356.283 393.348 434.822 492.637 522.071 500.686 474.077 456.574 413.235 380.744 339.66 300.762 278.541 263.169 231.499 197.445 162.043 136.147 123.664 96.3992 65.315 33.2428 19.8519 17.638 18.082 19.0462 19.9814 21.8215 23.0635 35.3707 51.7212 62.2438 75.0324 92.4647 101.099 107.594 114.184 124.687 137.694 147.278 162.548 170.272 188.757 218.886 270.587 306.176 329.985 334.921 361.682 381.613 392.882 402.342 429.238 478.858 497.712 514.276 525.091 533.418 565.624 683.792 721.159 792.484 808.31 816.686 837.771 771.313 727.159 737.321 738.998 759.279 845.036 979.737 965.493 653.281 433.104 330.877 254.89 200.821 178.458 159.795 137.138 116.97 107.804 102.542 90.9464 87.0573 80.6352 73.5818 71.7892 69.2079 68.5519 62.9238 56.6485 48.6585 41.6876 37.5217 35.1222 31.5102 28.0407 28.307 44.3043 73.8438 103.291 130.113 140.591 160.128 199.706 313.981 344.566 355.78 419.181 415.431 357.296 302.73 256.631 214.696 186.082 160.558 153.319 147.762 130.867 119.786 104.684 81.4069 56.1231 49.6115 42.2492 45.4265 50.7776 56.379 73.4996 83.8283 107.538 128.773 155.416 177.773 195.423 211.212 223.809 245.748 280.751 323.702 363.002 472.788 600.182 705.241 803.787 713.583 598.742 505.508 427.91 394.89 278.689 189.954 166.057 157.416 145.058 150.178 161.766 144.854 120.036 118.027 102.758 79.5258 63.2005 59.3931 54.2171 45.1776 36.9445 29.3733 26.7749 27.0973 27.431 27.5142 27.9825 27.0715 28.4115 29.8123 34.9247 38.3494 47.0804 55.3196 73.3707 110.273 160.207 197.444 239.431 284.232 309.745 321.17 334.156 354.566 369.451 377.525 400.892 437.189 477.681 504.872
60.5548 71.9052 80.2325 82.7514 81.9947 85.2366 92.1763 102.508 112.03 113.099 114.604 122.354 159.874 212.419 223.282 252.197 282.91 293.652 296.748 289.991 289.377 291.994 291.774 294.339 314.878 366.608 403.756 391.597 401.785 399.614 406.714 416.049 450.556 497.713 539.645 564.636 630.36 688.577 745.763 791.377 831.68 838.836 776.434 673.315 631.748 603.857 612.609 622.867 632.263 640.721 657.065 665.01 670.624 689.3 713.632 689.001 650.76 619.708 597.169 587.714 520.956 431.517 410.757 404.476 384.878 388.308 410.938 423.063 403.692 390.978 384.348 388.765 411.364 416.807 410.114 385.224 367.031 343.207 311.67 288.018 275.629 255.219 220.78 231.535 232.66 252.973 270.075 273.359 279.939 289.543 305.132 307.395 306.601 312.261 309.948 315.063 318.406 332.076 351.053 376.83 386.961 391.932 391.353 368.658 368.947 351.867 287.133 234.162 206.127 181.852 159.847 146.101 114.51 64.5875 51.9605 46.1436 54.2771 81.1699 74.163 50.752 35.5899 21.5967 14.389 8.98958 8.37998 7.13495 2.78438 1.29913 2.51 6.25107 7.9587 10.7852 10.3595 11.7711 13.5425 15.5683 20.7707 29.6041 37.1851 47.7675 57.499 65.3554 64.6802 73.2735 93.9829 130.504 159.925 150.869 107.521 107.705 135.999 154.043 165.465 167.236 161.632 161.018 146.123 127.118 114.324 108.697 99.4631 85.7375 78.5911 71.506 85.8886 103.716 93.524 39.1744 25.8158 26.0969 41.9626 61.9558 90.8884 122.712 147.624 167.172 208.809 251.179 286.359 326.317 367.075 418.292 461.714 500.273 512.644 480.004 445.676 410.829 376.127 350.017 318.045 284.679 267.1 238.942 207.453 169.51 150.381 137.003 116.095 95.9228 53.6017 24.9829 15.8075 16.6075 16.5342 17.5934 17.9146 20.6513 28.0371 37.7885 47.6845 78.0414 100.524 109.379 112.56 117.164 124.929 135.5 141.557 155.49 159.033 181.648 213.245 265.327 302.341 326.094 340.113 358.329 376.143 391.021 417.726 439.315 463.394 484.067 490.434 512.999 561.682 618.87 664.022 619.978 749.764 773.608 777.609 790.776 839.527 805.067 814.957 846.904 864.899 944.443 1046.29 882.491 590.515 457.228 376.598 265.043 210.387 169.892 150.921 131.476 116.444 101.079 87.7622 79.0501 76.6795 73.1845 64.952 63.2806 62.1956 58.6762 56.0722 52.5771 46.6574 41.9512 38.4189 36.739 33.9101 32.4634 48.1245 83.1387 108.4 136.404 165.547 208.015 218.44 233.963 341.09 421.319 412.109 477.863 428.409 348.759 300.996 258.603 220.088 189.642 163.132 151.196 135.17 126.308 113.314 90.6858 60.8484 51.6726 41.2231 35.4533 35.842 41.5124 46.2828 58.0589 70.4505 92.9725 119.202 146.278 170.206 194.955 214 227.801 244.048 264.906 299.078 338.293 483.339 644.28 792.454 872.915 736.732 579.687 468.996 371.41 297.886 259.678 165.147 142.975 137.261 119.555 109.492 114.523 102.518 96.6249 86.5932 65.7082 46.9231 45.6907 45.5971 36.9291 31.803 28.2526 25.8904 25.2147 25.6106 25.3179 25.8578 25.134 25.9855 25.0016 26.9725 27.9133 33.2976 36.1916 56.3586 83.1435 115.425 153.991 188.243 243.941 273.375 305.915 324.374 342.228 354.927 367.593 386.602 423.078 447.129 472.242 493.478
48.3266 58.3605 66.612 69.195 79.0204 83.0595 90.1644 101.527 113.049 114.004 120.374 114.369 131.167 162.968 204.817 214.511 240.593 268.58 286.125 287.46 295.208 316.274 317.504 319.239 336.396 373.362 408 383.141 380.457 365.145 370.226 363.383 381.351 415.589 457.698 491.36 523.095 577.096 667.75 736.113 781.898 811.521 812.852 741.519 677.426 646.094 649.79 661.23 671.081 665.728 684.112 694.271 714.436 738.823 690.962 608.225 566.324 514.857 483.994 482.805 476.746 434.682 411.567 425.274 424.177 430.435 467.217 439.906 358.444 330.995 302.41 330.038 378.722 415.589 435.754 434.686 415.445 375.34 342.592 312.207 288.509 271.14 247.787 226.514 219.201 241.443 268.083 270.325 263.966 274.278 302.997 322.298 319.171 327.909 330.073 335.184 341.701 346.007 358.194 382.068 407.449 418.318 419.313 395.289 389.85 371.653 325.621 275.64 250.345 206.327 183.519 189.526 160.488 97.5977 107.146 71.8767 36.3689 39.6319 56.0411 38.9732 23.5965 12.2293 6.08726 3.33221 2.27154 1.79139 1.43341 1.40252 7.96257 17.7206 16.8008 16.0403 15.1056 15.0646 15.7102 19.2714 28.4504 37.5181 50.0634 68.2386 79.0456 86.7462 86.8554 98.1502 127.808 142.106 167.611 150.79 114.549 131.258 156.908 176.282 189.841 187.661 184.532 181.671 166.545 151.374 132.914 125.746 118.536 104.287 101.155 97.639 111.131 115.152 101.347 48.3597 31.2928 27.669 37.8094 51.648 73.0271 99.1258 122.121 144.659 186.862 229.899 263.918 295.772 337.47 382.275 403.595 425.216 452.187 457.523 434.645 414.98 383.462 361.733 335.696 300.875 271.465 259.065 221.677 185.892 166.698 148.386 126.503 109.126 72.895 30.7817 18.5945 15.3337 16.0481 14.9845 15.7506 18.9104 20.8963 30.8782 58.8947 81.6103 99.4541 114.556 117.505 120.952 126.016 133.373 136.276 140.626 148.131 183.246 205.646 247.291 294.697 322.758 338.598 358.252 378.834 397.679 426.727 447.265 460.6 474.438 477.278 492.174 536.695 542.051 535.529 524.95 593.562 646.645 682.127 696.773 755.536 808.038 854.726 879.227 929.672 988.222 1095.55 868.707 710.178 619.279 492.824 334.391 198.585 160.248 142.752 128.937 114.906 97.6943 81.0864 71.5494 69.1843 64.1386 62.694 58.2264 56.8432 54.7315 50.47 49.0391 46.2525 43.0697 40.7711 39.5469 38.1119 46.4959 74.421 109.365 135.772 154.57 181.739 276.898 311.981 280.586 358.383 454.994 498.666 534.222 453.589 365.085 299.811 262.389 228.623 192.121 161.996 143.133 133.467 119.857 95.4509 67.2918 56.0281 42.1826 36.5858 31.7871 32.3196 31.6108 36.6051 42.3496 60.3957 82.9916 107.753 134.136 158.396 183.391 209.099 227.708 239.573 264.263 314.254 371.303 484.494 633.715 813.965 912.741 773.769 610.805 474.481 334.463 257.995 180.676 124.412 108.655 108.084 99.1844 88.4456 82.5485 74.105 90.6273 45.4623 31.3109 30.4116 31.7699 30.5031 24.9319 23.665 24.9721 24.1967 24.0277 24.0379 23.8 24.4234 24.9145 24.4643 25.3356 23.6662 24.6601 24.9722 40.1006 60.8444 88.8094 118.411 155.019 185.458 238.816 275.432 286.925 309.052 317.114 340.528 363.934 399.941 432.429 452.259 465.842 482.024
41.6657 44.2007 52.6486 61.4737 78.9241 80.95 86.7418 98.3067 112.232 113.071 121.364 114.161 119.692 128.941 154.94 158.973 169.413 236.822 257.046 262.123 300.548 337.089 341.349 339.935 343.5 359.919 394.164 371.334 359.135 346.597 333.931 305.248 299.878 318.818 361.021 402.498 440.695 486.535 559.884 619.277 673.957 732.712 784.695 770.28 725.646 685.95 686.015 695.089 688.708 675.28 696.905 716.887 745.429 749.572 592.431 522.205 487.744 441.786 408.782 378.89 375.247 405.713 420.622 432.336 450.32 462.261 464.098 417.597 341.739 272.147 252.623 268.78 333.797 373.603 403.92 435.731 435.462 411.645 381.668 349.392 309.968 284.897 264.481 248.753 235.618 211.147 247.476 265.886 263.969 256.4 278.601 308.776 319.502 328.281 338.652 347.009 360.324 368.987 362.091 383.41 426.875 453.735 445.098 425.272 409.732 396.702 366.927 318.393 283.353 235.315 219.42 214.978 178.039 166.707 195.215 147.647 82.8762 40.8195 22.7306 12.5372 5.00256 2.10015 2.19943 1.6142 0.930095 0.476657 1.49505 5.807 19.0346 23.6985 21.718 20.9166 20.3545 23.1453 22.8959 29.6565 45.9765 61.2793 85.0728 101.432 120.88 129.116 124.968 143.392 176.079 178.999 176.463 150.077 123.542 149.946 174.081 193.914 210.064 208.061 210.948 197.855 180.157 173.286 156.317 146.455 139.23 126.579 127.053 120.552 138.116 145.303 123.063 103.548 55.8173 34.4328 36.7495 45.2895 61.7352 80.893 106.314 142.497 176.826 206.902 228.036 264.102 308.728 340.033 361.887 390.936 421.346 419.328 412.432 400.355 382.75 363.07 345.869 310.382 283.574 277.153 239.517 204.712 186.37 175.985 140.239 115.566 81.8457 39.3257 21.4251 13.8027 13.7388 13.0072 13.3043 13.0056 13.4095 22.9569 54.5666 63.738 79.362 99.0467 111.466 114.491 122.614 122.91 125.89 115.972 138.402 169.647 193.612 217.79 269.431 320.292 346.14 367.794 389.288 410.237 421.959 440.812 459.558 465.647 479.883 510.065 534.842 550.953 545.737 567.719 599.359 642.727 677.071 773.698 871.783 941.34 965.409 950.299 993.414 1025.38 1064.07 912.531 858.368 678.134 468.857 298.322 180.868 165.916 151.521 135.539 117.645 100.243 79.9542 69.9872 62.6282 63.3073 58.5562 57.5352 54.3156 54.0448 50.779 47.9948 46.4601 44.5705 43.3249 46.1817 55.6027 76.7983 101.62 127.42 148.747 165.403 188.786 247.725 354.783 351.456 400.609 456.906 547.311 587.143 512.056 432.112 328.598 275.583 243.372 205.755 171.633 145.002 127.636 99.8316 69.8459 58.9037 44.629 36.8331 31.8723 30.0081 25.8808 27.5432 31.6903 39.7631 53.6861 72.2416 94.6293 117.269 140.134 183.16 206.82 231.395 241.826 266.542 327.755 432.149 521.332 644.648 802.746 927.619 799.225 613.266 505.471 388.535 236.441 134.217 103.885 86.9482 79.8548 74.5805 66.1492 59.9435 53.3289 43.6254 22.5719 20.6186 22.8702 25.4381 23.1799 24.0836 22.2926 22.602 23.6922 23.1825 22.8802 22.7671 23.3299 23.956 24.338 23.8677 21.0516 21.9059 33.7593 51.3573 75.1117 98.529 137.176 167.264 198.849 246.58 277.899 266.741 281.93 307.166 324.622 358.225 382.117 425.382 428.53 435.847 463.211
40.2613 36.6428 38.7328 51.0373 62.1022 80.2852 86.5498 96.4773 110.006 111.714 113.66 117.003 115.574 114.057 122.103 121.23 127.458 176.499 189.689 192.994 253.831 284.788 319.763 343.455 332.275 332.862 346.844 356.857 336.222 319.577 305.507 266.674 253.541 255.575 264.46 294.561 331.422 385.327 447.026 489.002 544.547 595.617 672.254 727.585 743.559 727.573 721.734 720.003 703.593 684.269 705.362 733.39 749.878 688.708 523.536 453.031 407.969 374.334 360.846 321.821 297.491 326.688 376.197 376.535 373.33 376.666 368.549 353.688 316.205 242.945 219.147 228.926 274.077 316.363 338.474 382.246 407.714 415.728 405.058 387.452 340.743 302.808 290.324 286.799 265.239 228.761 219.52 246.423 243.75 246.089 245.276 260.296 283.475 315.825 327.629 343.314 357.324 372.711 365.215 382.615 434.258 462.194 459.142 448.895 441.489 427.766 401.676 357.238 304.32 276.583 269.99 232.537 207.478 220.799 246.815 215.945 170.169 168.791 92.8421 45.4306 18.3758 2.30618 0.825142 1.02607 0.405471 0.44669 6.42732 17.3776 23.5598 24.5909 24.8218 26.3562 30.5956 34.6721 35.8903 48.0575 71.7544 97.2651 131.84 153.304 190.013 193.324 176.93 168.715 188.6 214.293 201.783 173.619 136.759 157.883 182.059 195.289 206.553 223.632 236.294 226.351 207.201 199.446 176.368 172.244 166.519 154.163 154.935 151.516 148.401 158.698 154.655 129.748 83.8731 43.1535 35.5415 43.1692 55.572 70.0141 90.5652 121.627 140.927 164.553 187.513 231.161 266.948 294.83 330.309 364.89 393.235 392.922 383.784 383.728 385.297 378.659 355.687 323.768 304.44 282.914 254.658 214.849 199.494 192.089 156.337 122.531 92.138 55.4158 30.0116 16.8825 11.8849 11.8064 10.7346 9.29608 9.79695 14.118 29.1815 50.2894 61.3998 77.5178 93.7157 100.823 100.018 100.307 94.1559 116.219 141.965 171.041 201.114 216.62 247.332 301.77 341.982 375.41 396.538 412.377 426.38 449.319 462.36 488.102 542.498 589.298 596.98 592.626 653.315 673.153 680.83 715.39 759.647 819.14 896.012 987.329 1082.17 1040.28 1068.19 1074.28 1102.9 1026.43 815.39 543.582 382.382 237.764 190.138 177.124 163.965 139.801 115.214 97.137 80.1361 66.6663 62.987 59.6172 62.3823 55.9268 56.7355 58.376 58.9433 56.0333 53.5554 49.1404 49.7993 61.8502 77.6497 98.7675 118.205 139.377 162.606 189.493 211.353 247.236 350.513 430.123 444.208 512.372 583.642 626.298 575.352 459.877 356.929 300.722 261.711 224.148 184.541 154.591 109.894 73.0544 58.879 46.1957 38.2921 31.7452 29.0477 24.2015 24.0876 25.1791 28.6598 36.5634 46.6839 61.0358 79.7176 97.8959 142.437 203.922 256.072 274.714 273.628 294.388 362.29 503.95 623.98 725.867 858.352 947.298 796.672 595.758 481.359 382.284 225.566 113.558 86.9117 71.4924 60.4802 53.1327 48.0848 43.8386 38.6994 24.8891 13.8512 17.1353 19.4039 19.9471 20.3987 20.2131 21.9183 21.4464 21.7486 22.5692 22.4091 22.9296 23.1692 22.9685 22.3869 20.9702 22.3003 35.869 59.2024 83.6756 111.634 149.528 180.98 226.295 248.763 282.707 289.428 257.687 263.822 303.385 320.029 331.308 363.5 423.948 402.441 400.906 439.876
42.5755 34.2302 27.4 33.2123 47.7853 65.3541 91.5752 97.4876 110.048 111.637 113.377 116.881 119.842 106.31 106.695 101.101 110.337 151.988 163.429 162.354 186.655 196.78 224.777 254.67 271.146 275.302 262.694 290.21 294.697 304.447 288.483 243.798 228.88 228.415 229.903 233.414 257.811 282.871 334.679 363.494 417.313 473.277 528.704 609.105 653.737 688.38 701.463 703.197 689.432 670.959 676.907 689.793 682.692 582.651 478.642 411.917 353.745 315.878 296.335 284.03 243.092 245.706 264.91 266.89 245.467 251.947 265.542 255.236 255.866 210.407 190.699 201.183 227.45 247.063 279.968 308.852 347.169 377.278 390.101 389.276 359.754 330.356 312.693 301.218 273.757 234.672 202.898 192.344 208.343 200.345 199.068 199.596 224.204 278.801 310.887 326.04 341.601 354.753 358.233 375.298 418.866 445.582 460.422 467.075 464.101 447.507 424.423 379.519 324.923 305.902 290.49 244.88 223.469 232.08 246.608 243.433 209.603 217.35 147.182 78.9909 44.2226 12.2293 0.349725 0.508475 0.373825 4.32319 12.99 21.0396 24.6405 26.0359 29.3677 35.3295 43.6837 49.5725 62.9843 86.8025 123.477 154.251 184.528 221.745 256.937 260.22 248.951 225.076 216.999 235.01 237.651 207.564 162.162 160.444 179.474 180.995 208.651 229.18 263.756 260.447 236.47 220.021 201.37 197.66 192.433 184.963 179.71 186.415 182.606 186.31 179.827 152.136 107.188 58.1564 39.2393 38.7143 46.0879 60.1193 75.7081 98.9455 116.694 143.794 171.603 205.589 240.001 273.587 309.184 333.295 351.331 369.785 384.175 372.075 382.15 390.681 370.898 347.607 321.64 288.401 255.275 214.913 196.618 186.179 156.902 125.415 94.1919 64.719 33.6671 21.1387 12.6967 9.68288 8.2568 8.41752 8.71242 10.7557 13.7164 36.0768 51.2162 52.8523 63.7118 67.7961 63.6274 71.5169 86.8501 128.62 162.083 178.811 189.545 191.125 223.241 251.001 318.665 367.85 395.108 413.072 431.108 454.329 475.908 526.427 589.298 655.894 721.198 759.214 758.945 778.572 772.547 780.161 826.92 890.55 972.452 1066.64 1083.37 1086.13 1120.97 1151.83 1054.29 834.962 631.253 499.696 341.307 229.933 202.343 188.247 170.508 130.348 106.34 92.2721 84.0672 71.7693 66.0167 64.1831 63.5271 60.7184 58.0966 64.4616 67.0737 68.2453 63.5461 62.0188 69.5098 82.292 93.9195 109.889 143.332 165.891 194.428 226.456 242.278 296.838 364.388 484.049 497.956 549.085 647.789 675.705 579.012 440.41 363.931 312.322 272.656 236.158 195.997 142.087 90.4636 62.6407 46.6219 39.3433 33.1539 29.1635 22.9205 22.8221 23.5817 24.2859 27.4715 32.2611 39.6315 50.3411 66.3273 88.4803 128.414 164.583 212.572 291.912 317.583 352.575 411.165 524.951 694.466 826.781 947.906 938.819 786.941 617.825 474.41 358.361 230.078 106.323 74.2293 58.8332 45.0218 40.3054 36.8063 33.1492 28.778 17.9924 11.5789 13.4995 14.3976 15.7811 15.2055 18.1206 18.699 20.7284 19.9814 20.6602 21.7375 22.6703 21.9886 20.6693 19.7988 18.7328 31.7639 61.8546 79.9548 104.525 153.667 200.762 249.789 273.496 300.059 325.317 362.782 334.299 304.833 298.85 320.316 338.911 363.606 394.673 384.248 399.033 459.83
41.8619 31.8384 26.2325 22.8549 28.5027 50.6966 74.7297 100.382 108.891 111.769 112.808 114.688 115.985 115.798 108.176 101.341 113.699 158.505 171.246 168.265 168.987 156.43 160.72 176.188 203.484 195.306 201.974 225.538 239.915 294.156 324.04 298.336 266.642 219.109 204.283 206.911 218.457 232.423 259.662 285.697 313.731 366.579 418.861 487.091 533.587 563.83 565.837 578.105 573.945 562.313 571.244 549.179 536.56 519.177 427.891 349.338 285.497 259.79 246.343 228.694 192.066 176.41 182.825 166.37 161.818 157.205 182.138 178.045 183.88 164.45 162.465 170.675 185.408 204.385 242.927 266.245 296.19 332.062 350.859 343.077 327.45 311.595 283.123 282.345 261.677 233.106 212.795 184.699 150.765 138.684 147.956 143.878 163.274 220.481 273.075 293.304 311.153 320.847 336.412 357.262 390.575 431.246 451.658 467.815 470.235 459.854 429.681 395.669 348.925 332.034 304.151 254.21 222.371 228.971 241.615 242.242 217.998 231.057 167.18 102.623 65.7696 24.0236 0.437202 0.331029 1.24695 7.50015 14.3291 19.9382 24.8797 28.1296 34.1137 42.4825 55.7554 67.9833 95.6954 144.045 185.954 210.415 236.599 270.103 322.753 353.321 362.602 336.728 299.776 264.742 275.22 250.63 197.799 169.263 166.165 187.393 207.44 239.018 272.671 273.448 253.789 239.451 230.915 227.384 223.425 212.795 199.697 203.264 214.473 213.999 207.915 188.612 135.062 77.6182 44.2623 35.7245 38.7143 49.8342 64.1926 79.0122 96.3895 127.192 151.466 180.457 223.44 271.753 297.313 310.98 329.867 353.122 370.523 384.521 373.009 394.491 392.247 359.034 326.909 291.765 255.229 214.342 181.704 168.921 162.59 138.338 100.638 58.6646 29.509 21.0436 14.4817 7.6746 7.40623 7.42033 8.22704 9.30668 12.0817 19.8724 31.0454 32.5729 39.8649 45.0309 58.2921 83.1069 109.921 128.153 142.959 135.331 142.138 179.751 230.146 258.766 300.488 352.96 400.495 435.257 462.54 478.783 491.722 522.43 561.536 636.586 746.231 862.189 902.936 905.573 908.891 915.825 935.638 961.297 1007.98 1033.46 999.713 1047.82 1123.02 1164.23 922.421 712.997 622.009 483.806 309.763 243.134 231.255 211.642 164.563 131.555 112.565 102.605 98.6841 85.6535 77.1435 76.4192 69.9594 62.322 63.6017 66.6897 73.1981 75.574 73.9765 72.5309 86.9291 102.797 113.429 134.93 179.634 209.508 223.827 248.131 261.334 305.689 384.41 487.562 562.833 594.97 662.67 685.307 547.784 430.554 370.458 315.904 277.139 234.69 181.099 116.478 79.0122 52.5552 40.2995 33.9955 30.7277 23.0656 21.6997 22.4017 22.5466 22.3695 24.455 28.7404 34.8512 44.5757 62.132 85.2518 111.284 165.219 197.158 235.612 259.905 303.949 402.398 517.138 648.155 800.025 953.506 945.138 820.179 657.894 519.633 385.994 261.259 117.918 64.3024 47.8666 36.2897 31.5541 28.202 26.167 21.3499 14.6832 11.0486 11.8538 11.7773 13.7387 13.726 14.5982 17.4628 17.4483 19.9289 19.6334 19.6611 20.7601 20.4466 19.6014 18.2179 20.2338 33.1501 56.1831 86.1052 117.395 169.752 233.424 294.005 343.013 345.069 364.587 405.217 420.845 378.996 318.049 320.187 349.881 400.867 395.837 426.788 455.274 485.03
47.059 32.8748 27.8057 22.604 21.3724 30.3399 56.48 79.5724 104.181 109.614 116.929 112.275 111.643 115.831 118.107 120.741 139.339 169.642 184.159 182.577 164.979 139.609 130.671 132.621 153.083 151.401 163.923 175.403 192.567 229.913 286.921 330.782 337.866 264.853 208.611 207.627 213.247 208.208 216.056 233.312 247.285 279.754 317.294 362.504 403.231 428.995 421.616 422.443 424.119 421.344 456.872 426.31 409.603 433.575 397.049 297.149 250.513 234.427 224.438 204.675 168.494 145.043 129.877 104.305 101.964 95.2401 110.255 114.457 118.094 111.351 120.393 125.555 141.334 167.236 202.195 226.329 258.833 291.329 302.094 291.191 272.314 263.355 251.527 262.058 243.292 226.675 217.487 193.479 147.963 115.89 104.517 104.918 124.796 165.142 209.335 248.538 271.228 287.126 310.286 339.005 367.585 417.437 447.281 471.459 477.928 459.436 430.798 410.406 379.678 361.931 316.847 255.889 221.938 226.649 238.523 244.17 230.695 239.687 178.311 121.085 84.6379 36.0695 0.599916 0.353108 4.8937 8.6741 12.4482 17.8791 22.8502 27.8941 37.4088 50.9545 66.3656 85.5489 116.32 148.136 187.58 245.567 277.437 306.338 359.87 412.809 455.851 443.516 388.239 313.822 301.762 276.998 227.39 199.853 193.007 190.155 211.013 249.523 284.517 286.73 273.324 265.54 261.947 257.337 247.629 237.408 221.878 224.127 235.061 230.21 203.756 164.586 116.883 71.7199 44.1782 35.3184 36.6464 39.0542 49.9461 60.1483 75.7788 99.8648 128.743 166.396 207.658 256.763 286.951 301.353 318.06 332.353 344.991 371.585 387.331 388.116 396.592 369.145 329.47 289.629 256.054 217.767 189.866 176.109 179.658 152.794 104.841 58.8607 33.6454 20.6874 14.7011 9.70791 6.88887 7.01645 6.81739 8.20726 10.6284 15.2958 21.9831 27.5788 36.7384 56.6071 78.7623 101.445 99.082 97.4704 102.073 108.267 136.826 185.685 237.93 290.667 347.543 387.447 421.09 486.04 528.201 536.944 561.888 619.741 655.457 725.911 826.372 887.892 934.645 963.175 921.587 835.838 855.791 879.121 890.921 915.331 975.974 1025.46 1067.3 1112.29 939.903 775.427 597.367 417.967 329.959 301.062 283.898 204.564 151.262 140.205 124.004 116.269 110.426 107.707 95.3041 85.2481 75.2855 68.7863 64.156 70.3764 76.5987 83.9688 85.6028 89.1676 102.37 125.36 144.601 179.604 220.643 240.948 249.269 271.097 286.533 302.978 371.259 487.652 586.011 655.008 711.033 671.371 537.343 426.216 371.987 319.318 279.402 207.684 148.217 92.5016 60.8743 37.6213 26.4565 25.7298 24.0709 21.8265 21.3843 20.6673 20.5746 21.0555 23.0656 27.6511 36.5765 46.9315 64.4346 84.3481 99.0888 142.524 175.756 203.593 237.142 270.462 362.24 487.754 594.676 720.626 920.08 874.052 867.982 724.23 569.405 422.598 298.005 142.206 55.1859 38.645 29.733 25.2792 22.7847 20.8653 17.2593 13.8951 11.886 11.1751 11.1061 12.6481 13.4719 13.3296 14.2225 16.2708 17.3487 19.2068 19.8546 27.4069 37.4023 38.554 29.757 28.8156 37.0328 53.0239 82.0446 117.814 161.703 217.253 277.553 353.844 378.874 426.326 452.808 497.461 464.169 394.64 354.985 373.964 424.048 441.782 452.199 506.89 527.228
73.9552 43.4425 31.0742 22.9809 18.8557 22.8753 33.7354 58.6194 81.0022 105.665 123.456 115.527 105.863 110.618 114.543 117.76 140.424 172.157 196.416 190.931 173.588 134.37 110.639 107.51 119.153 125.516 139.681 150.755 174.746 206.458 235.833 278.721 323.685 315.011 205.574 199.552 206.867 205.306 207.671 211.577 213.473 241.183 264.165 295.643 320.186 317.469 305.569 292.366 297.977 305.507 347.574 339.396 319.577 336.299 376.012 340.382 276.027 241.854 222.288 189.133 151.602 123.427 103.315 86.3378 72.3981 66.8121 62.2335 61.1346 67.5373 66.8021 73.9515 82.4817 98.8692 127.138 161.334 197.269 225.485 242.495 251.694 248.282 237.186 225.854 222.138 228.181 214.313 211.51 214.089 200.726 150.543 113.673 95.4532 92.1847 98.1703 116.025 153.576 188.619 224.426 254.589 285.793 321.007 348.254 382.588 435.334 467.143 486.653 472.119 451.557 438.253 409.645 376.906 324.981 245.684 214.549 218.5 232.556 241.736 237.628 241.296 188.171 125.594 89.2657 47.0275 1.75518 0.460845 4.18568 7.91348 11.2467 15.5547 19.8217 28.9249 49.1137 67.3566 90.8572 114.966 139.873 162.267 176.554 219.116 268.572 333.041 386.156 442.281 497.132 519.515 474.843 395.835 350.816 305.695 273.345 236.717 227.216 223.605 226.232 257.568 291.213 294.152 293.063 284.244 281.25 281.471 265.603 251.825 243.07 235.247 230.952 206.694 172.634 122.414 85.644 59.9932 41.7699 36.2762 33.756 31.8194 35.7501 43.6554 51.3331 72.2485 107.75 147.578 187.405 234.797 272.879 288.233 294.318 309.682 332.737 354.619 388.963 384.528 397.138 380.19 346.376 297.759 255.226 216.547 197.869 179.92 176.551 165.505 142.703 87.763 47.5489 26.2917 17.5979 12.5391 7.42077 5.73467 5.94498 7.38352 9.21156 13.5653 18.7833 23.4122 35.479 59.0288 75.0722 77.4116 69.8921 74.0522 87.5641 118.48 164.767 215.974 261.669 318.757 376.184 408.138 440.694 492.919 537.169 596.988 650.179 683.14 659.638 665.659 702.547 768.817 771.668 768.48 678.736 626.66 625.053 685.037 744.755 823.418 888.961 916.172 1023.14 988.858 824.53 753.634 598.451 482.557 389.935 329.854 250.62 182.115 159.223 148.812 137.364 123.1 112.349 116.941 110.583 96.6817 80.6109 73.5724 71.6527 71.4201 87.6889 99.3197 105.027 110.41 131.165 177.577 187.579 205.751 259.99 298.837 288.559 290.353 311.094 324.698 353.364 425.04 498.537 593.681 680.531 674.686 545.541 444.071 370.951 316.979 250.885 170.14 120.652 73.7449 44.0114 31.4 24.8291 23.3658 20.7882 19.6127 19.344 18.8621 20.5573 23.0668 25.8503 30.3548 40.086 49.9898 65.8433 79.5858 104.135 131.147 153.843 187.972 225.608 269.938 347.202 443.742 555.707 708.925 902.675 759.53 778.221 730.595 578.086 464.767 354.348 188.004 62.1778 31.1708 24.2859 20.9416 18.9463 17.9 16.2158 13.8859 12.5855 11.6175 11.1642 12.5633 13.586 13.4493 12.978 13.431 16.5629 20.632 33.1733 49.0618 68.9254 82.8479 72.5183 59.3164 62.7076 68.2975 89.0007 119.351 161.977 203.538 227.256 277.604 334.154 407.049 496.803 580.116 536.793 480.099 410.799 394.193 433.478 494.503 500.989 521.14 535.514
85.6491 55.9605 36.7268 23.8408 19.7054 20.2554 25.5609 36.171 60.53 85.1563 123.321 132.733 118.654 110.015 111.865 115.399 136.28 162.983 188.303 185.931 179.316 148.692 111.137 95.7739 104.913 116.554 121.496 135.135 157.975 190.473 219.423 241.539 284.277 314.428 267.701 209.363 201.934 214.106 226.884 230.089 230.462 242.703 263.483 278.285 267.118 240.095 222.006 207.018 198.629 207.671 258.638 309.088 294.843 303.293 335.629 364.266 314.614 250.266 202.176 175.871 147.717 115.585 99.2002 78.8908 61.1859 57.4547 52.3015 47.6893 51.4944 54.0083 55.1954 64.1919 88.1996 118.536 146.689 181.372 207.707 202.699 216.446 210.933 206.024 194.237 191.509 196.793 195.368 199.854 197.326 192.678 152.709 107.044 96.5033 87.8264 84.0188 78.8289 100.944 133.607 162.634 207.186 249.364 293.872 331.688 365.366 416.724 442.147 485.332 505.998 498.259 462.609 428.096 371.4 304.449 239.708 209.816 208.611 224.729 228.169 228.487 231.13 208.83 125.724 85.5295 51.4198 3.97003 0.550746 3.60554 8.35408 10.8954 14.5314 23.6722 38.9646 72.4306 102.911 119.108 131.977 154.092 195.965 241.318 235.257 256.985 302.558 355.7 414.621 471.001 516.838 548.03 489.828 416.001 353.065 312.278 272.812 268.204 258.93 255.042 266.267 295.871 304.341 308.24 300.825 290.657 280.718 272.26 252.724 242.368 236.302 212.364 176.085 151.849 110.676 79.0414 56.1273 49.3493 49.7302 42.0268 35.4678 31.4 29.6863 36.0063 48.4213 78.9121 114.056 159.742 209.994 248.896 267.433 273.517 296.226 326.037 344.595 369.117 385.007 382.89 381.967 358.197 311.069 265.491 229.972 204.439 186.25 175.396 169.663 166.843 114.377 62.0556 35.5234 21.6154 11.794 9.07927 5.03089 5.17018 6.33774 7.60505 10.4821 14.2013 19.5802 26.456 40.0318 49.8334 53.821 58.09 71.1096 99.534 136.55 184.963 240.573 267.394 300.124 334.809 367.659 409.103 447.263 521.234 581.638 586.89 564.874 534.022 551.204 585.448 622.61 600.643 589.651 593.485 596.28 608.133 645.122 723.225 828.15 921.657 959.543 891.241 733.503 655.392 671.539 591.01 528.902 398.646 275.877 212.717 183.261 171.796 154.149 143.825 128.941 117.083 120.752 123.417 112.044 94.6256 83.5556 79.9021 88.4732 98.8327 118.939 128.783 143.647 185.518 247.563 279.129 247.081 279.052 348.461 350.606 329.646 337.143 348.058 362.225 391.884 442.12 508.061 633.956 689.101 581.39 474.74 392.414 295.004 201.304 139.965 98.7738 55.754 38.252 28.0818 23.0048 21.6736 18.7133 17.5589 17.2341 17.4707 18.5289 22.3495 26.2478 32.4763 41.7895 52.3613 60.7901 81.0383 102.448 120.065 135.621 191.987 229.423 275.851 346.609 435.511 543.668 672.652 823.694 707.817 635.789 635.616 475.235 386.084 382.897 259.145 69.7484 25.0206 18.8472 17.2731 16.9399 16.2736 15.9653 14.3549 13.2231 12.5754 12.4185 14.0191 15.0346 13.84 12.2487 13.8539 20.7545 42.976 70.8783 112.64 106.568 97.7912 95.5834 99.3716 97.2458 98.2572 114.814 130.425 163.229 196.982 226.106 264.595 306.369 357.784 450.276 547.416 591.47 523.923 443.474 435.016 463.12 536.628 521.451 472.859 418.421
86.3501 70.2622 42.9586 27.5371 20.9002 20.7607 21.8808 27.4356 37.6839 65.3699 105.754 139.062 136.763 117.288 112.131 118.152 134.857 159.682 181.821 177.881 175.259 166.005 126.268 91.3 91.9115 106.412 111.567 121.23 142.446 168.535 192.084 211.126 228.994 274.98 307.064 286.106 228.136 209.508 222.658 236.111 244.37 260.541 269.885 260.15 244.417 214.231 190.788 173.68 172.329 179.475 220.115 285.545 280.709 281.771 304.592 334.55 315.793 279.793 205.205 147.311 128.754 107.666 92.753 67.9362 58.6851 48.7968 45.295 41.8193 43.6603 45.8541 46.1366 55.4377 79.2586 107.361 125.041 156.931 185.532 177.461 172.818 175.723 171.267 164.915 164.758 162.13 171.112 177.069 171.01 177.107 148.513 107.699 95.8225 86.117 82.9849 62.8959 61.3982 93.2034 116.97 148.061 199.083 251.273 294.87 339.41 395.917 422.848 478.484 510.265 505.915 466.425 418.121 359.433 284.495 243.134 211.588 205.641 213.948 216.794 214.398 223.402 235.705 151.336 98.0242 61.5074 4.18571 0.642593 3.06635 10.3522 12.253 16.3171 33.0715 61.1185 108.145 158.403 185.123 187.366 183.083 204.042 247.74 273.75 302.921 326.565 339.129 388.911 439.654 494.693 545.33 550.461 471.499 408.979 358.418 301.888 288.229 289.479 280.98 278.939 303.84 314.411 310.859 301.905 289.326 282.571 275.264 256.991 245.916 236.825 210.831 179.225 147.266 110.528 83.2092 63.5186 67.9243 71.5133 62.7864 47.6938 38.7566 28.4115 28.3022 37.517 57.2769 77.5776 119.725 169.813 215.47 250.278 264.56 281.687 308.424 328.012 353.18 379.078 384.144 370.504 351.748 323.059 285.874 251.695 218.11 195.048 178.538 175.488 163.439 130.213 84.8085 50.4933 26.2526 13.9662 8.50496 6.25794 4.5583 4.89351 5.25044 7.28227 10.1786 15.8165 21.6934 29.5152 38.5039 43.3709 57.5208 79.8544 110.356 138.728 170.63 215.312 243.528 267.337 302.425 335.28 403.099 468.624 513.27 488.382 484.308 471.187 478.004 515.226 546.74 538.855 543.393 604.078 631.919 693.575 744.294 774.553 815.391 840.604 869.875 895.757 727.401 562.688 537.787 579.178 547.872 513.504 382.319 252.279 205.826 188.802 170.84 153.556 144.189 135.321 131.728 141.468 144.963 129.716 115.961 103.803 103.812 111.626 120.7 131.225 151.394 191.05 247.556 279.19 349.103 334.738 311.818 355.711 392.184 380.644 373.069 373.505 392.043 429.181 448.559 492.202 608.496 697.457 612.911 505.732 395.069 248.608 164.358 115.918 76.7991 46.208 37.6912 26.8791 22.1825 20.5852 18.8829 16.8539 16.9514 16.5488 16.5768 20.3213 25.9506 33.7793 40.9453 49.5799 62.4211 80.6315 96.803 108.516 126.06 201.366 249.593 295.719 368.083 466.63 570.501 679.89 739.22 694.517 541.154 491.664 353.167 280.432 238.154 192.846 38.1442 22.8713 17.4133 15.4456 15.6305 15.226 15.5467 15.0091 13.9802 13.6916 13.8383 15.7541 16.053 13.316 15.2592 39.0041 64.1712 84.8253 109.094 164.415 149.473 128.619 114.174 121.263 123.601 131.232 148.186 151.508 167.638 220.093 239.435 271.361 311.476 358.776 429.606 512.357 622.232 583.122 523.411 525.466 551.936 533.401 464.458 391.399 338.485
87.6311 76.2179 49.4233 32.1431 23.7635 21.8778 22.4501 22.7072 28.6261 42.3107 63.2885 100.059 112.175 109.001 112.314 124.218 139.441 162.975 188.556 180.381 173.993 168.591 136.089 98.2493 82.6629 88.5908 96.0978 104.619 118.004 139.322 162.748 171.336 173.491 214.016 248.195 230.219 181.407 169.398 177.259 189.647 201.883 213.284 229.531 239.478 236.599 206.287 183.71 178.423 174.849 170.649 187.57 224.586 251.774 258.516 276.394 303.578 267.353 245.84 235.355 162.126 119.432 88.8862 73.3674 56.5646 52.077 46.9231 40.1662 40.0586 41.0323 38.7174 41.9072 50.175 69.2873 85.0029 107.327 136.003 152.286 149.678 135.268 130.416 127.801 132.751 132.881 139.995 147.23 158.532 162.023 164.488 135.663 107.304 86.2356 78.4395 78.8626 69.3908 51.8928 74.6364 103.353 116.165 134.945 196.218 252.623 296.149 339.751 397.845 460.185 498.501 502.961 462.792 416.332 352.08 287.747 247.72 217.607 205.615 208.005 209.93 199.466 211.234 227.441 162.574 108.967 55.6407 10.447 0.732502 2.90349 13.6972 16.4591 24.0402 44.3404 85.8974 140.26 188.637 239.285 253.985 262.331 251.269 280.292 313.516 335.219 367.899 369.507 388.094 425.707 484.207 518.342 559.915 529.839 467.127 411.2 332.292 304.767 307.259 297.447 291.294 309.869 311.954 308.536 301.853 300.296 296.242 279.286 265.382 257.58 244.705 217.456 188.604 156.672 120.195 92.8788 84.4829 87.036 84.595 77.3615 62.3649 52.7008 37.6912 26.0576 32.1603 43.411 57.9439 81.8782 131.751 194.6 236.57 257.236 270.493 292.315 312.984 341.769 359.817 373.454 364.573 360.843 336.082 301.868 268.5 235.351 213.234 189.838 179.367 169.543 145.278 102.754 63.71 33.4671 14.9622 7.33027 5.55085 3.31098 3.09615 3.50486 5.02271 7.594 12.0854 17.6906 23.5456 30.9248 40.368 62.0133 80.2638 95.067 119.344 149.71 184.997 218.94 249.393 278.468 305.909 363.223 437.494 438.915 406.112 410.355 451.852 482.324 514.98 544.985 559.821 591.538 639.858 679.972 742.358 783.346 786.921 766.366 755.144 798.977 825.755 616.323 492.387 482.985 487.151 546.176 536.446 452.602 344.564 247.333 201.227 175.615 164.399 155.332 146.803 162.979 210.7 198.563 148.849 135.36 157.077 171.019 139.088 144.189 154.453 167.705 204.506 296.245 339.82 379.406 398.82 348.91 365.76 396.082 408.455 407.784 405.002 416.149 498.653 490.027 535.155 617.131 669.289 568.662 453.326 322.454 213.789 141.797 95.9359 61.0151 44.3722 37.2578 25.5612 21.7122 19.8787 19.374 17.8761 17.2766 16.9288 17.919 19.8968 25.9985 35.1469 42.7494 51.0432 64.0858 79.832 97.6852 106.804 139.697 196.99 242.954 301.456 381.896 476.945 592.339 703.242 681.718 620.042 507.267 381.858 280.354 189.311 119.831 73.1214 34.9548 24.6153 17.742 14.6613 14.4818 14.7163 15.4286 15.448 14.6986 15.1445 15.969 15.8217 14.8452 15.6925 37.7017 94.1221 109.188 114.275 133.579 209.034 194.216 177.005 144.425 141.763 143.949 156.246 169.221 173.674 176.24 237.141 289.126 309.702 327.424 376.527 479.228 560.745 651.649 679.73 643.501 632.834 600.989 491.722 416.393 355.654 311.537
87.6619 79.7444 56.1309 37.4628 27.3489 24.1425 24.0711 24.2803 24.0998 25.676 34.8388 61.3703 78.5037 78.5431 83.3256 104.115 128.609 167.755 190.31 180.697 173.815 166.779 135.676 101.832 72.0832 66.5367 72.357 88.3723 96.6168 99.4759 112.141 122.926 136.725 193.274 205.249 161.758 129.653 133.03 139.13 150.327 163.581 167.814 181.08 200.521 212.659 193.081 193.081 184.441 175.403 170.16 183.904 192.918 207.728 218.298 235.053 274.682 222.148 187.821 171.104 151.592 146.681 72.6783 55.0572 50.5599 44.9915 42.1249 34.9124 34.4063 35.1362 33.724 43.3478 57.3765 59.8059 69.4633 85.9562 106.146 117.663 113.421 101.669 99.2691 101.086 107.95 116.843 126.521 122.259 131.605 143.692 135.593 94.1717 68.9473 56.6142 61.4002 68.6487 69.3914 56.405 62.3912 84.3479 102.063 116.269 140.199 188.458 242.11 291.552 351.131 412.987 506.816 518.86 466.959 420.596 349.32 301.701 262.285 230.669 207.206 202.001 200.623 191.065 193.94 205.71 150.758 108.019 53.5356 19.463 0.943508 1.38636 14.0312 19.7991 38.0598 52.3867 97.3272 158.325 213.054 264.353 334.432 342.431 326.193 331.169 384.707 408.454 432.095 442.193 439.789 448.621 479.082 509.259 547.832 567.608 527.766 452.896 371.876 323.31 318.827 326.63 309.97 315.144 312.463 299.156 294.518 305.236 301.749 287.408 280.686 270.394 252.467 223.12 192.941 165.161 130.996 101.057 117.333 126.799 115.328 99.2571 80.8106 81.8952 49.1273 31.1683 30.1122 38.2806 49.6421 62.8432 118.971 183.704 220.597 243.18 252.534 268.246 290.642 323.285 340.038 350.243 359.176 369.423 348.923 308.034 279.278 253.865 236.426 212.812 187.014 168.301 138.116 107.717 78.5786 47.6863 23.9652 10.6276 4.39526 2.66562 2.12987 2.7069 3.95499 6.62058 9.87317 14.5314 18.5925 23.1074 32.0868 52.2007 62.643 79.4847 102.75 130.941 167.489 195.989 225.52 243.107 278.891 329.72 356.81 350.059 358.222 382.932 437.727 480.788 557.763 606.457 631.528 658.23 707.53 759.648 797.572 800.573 787.663 768.278 782.596 806.466 721.33 522.246 471.691 490.696 501.9 568.515 575.488 537.815 491.469 371.888 311.12 237.258 200.325 180.971 175.352 241.324 336.592 256.638 186.95 173.622 218.853 260.705 182.703 172.511 176.606 191.824 206.413 271.017 368.975 433.869 472.537 396.418 386.113 405.187 430.374 434.643 429.069 434.003 497.531 579.64 606.398 640.349 611.393 463.864 338.753 248.723 177.555 120.713 76.1166 60.2597 44.0138 38.1062 26.2589 21.7546 20.1381 19.2096 18.2087 16.9545 17.0945 18.9667 21.9459 28.9895 40.6758 49.0187 56.9317 68.9955 83.0373 99.6651 118.082 181.968 236.181 270.972 326.139 398.087 487.182 624.371 704.245 633.705 529.225 454.137 312.259 202.074 138.061 100.524 72.4808 44.7633 25.3697 17.6169 14.1848 13.4987 14.1872 15.0713 15.1303 15.5008 15.7244 16.4784 16.4657 14.3323 17.7399 51.5424 99.7664 122.114 140.248 149.326 233.472 284.366 235.697 184.594 164.995 164.572 172.525 188.653 200.383 197.73 218.324 302.748 379.392 402.729 403.776 509.889 615.217 687.336 729.798 690.392 621.519 527.104 430.319 371.5 331.54 291.375
87.9644 79.0174 62.1536 45.1326 30.3545 26.5172 25.9779 25.9066 25.2901 25.2718 28.5944 45.8799 65.5176 63.2722 68.1665 76.7954 101.045 135.003 158.844 155.297 149.204 145.885 121.11 91.8463 67.21 53.8975 47.5039 62.0834 70.5471 71.5132 81.4664 103.585 139.343 134.815 160.594 132.459 120.215 130.26 143.633 148.891 165.712 166.115 173.849 197.488 215.421 211.605 208.722 192.308 179.006 172.681 179.259 184.911 188.733 194.549 205.706 243.155 194.596 160.356 131.872 102.801 135.179 75.3862 47.5318 51.1091 48.3303 52.2254 48.353 42.6644 38.659 35.4413 43.1535 56.4903 58.1475 63.9165 72.5998 82.6234 99.4697 84.3797 75.4477 73.1788 73.9939 79.1235 91.6224 98.4457 100.332 107.62 117.744 112.504 60.7127 39.0307 37.8367 43.8175 55.6705 64.1621 49.9431 49.0464 70.4319 87.847 106.53 133.438 177.415 220.024 267.611 355.382 418.407 525.442 535.683 481.904 430.155 358.457 318.789 285.867 249.843 217.307 210.529 210.154 194.371 184.674 194.216 129.878 92.6154 57.7003 18.0693 1.51351 1.31386 7.74466 25.3854 52.6375 71.2105 100.154 161.538 225.58 289.251 358.977 408.356 417.62 378.06 398.602 465.143 520.545 548.236 550.982 539.291 522.273 526.092 565.946 586.998 546.655 459.881 400.552 353.101 345.271 343.236 330.23 314.622 316.152 305.703 289.143 295.746 295.385 290.755 295.567 290.261 262.107 226.934 195.62 170.681 135.384 117.828 146.351 174.881 170.963 154.758 135.274 132.163 66.9316 38.1895 29.6825 34.6416 41.5857 54.0793 118.879 162.465 189.489 212.031 228.938 245.909 272.438 303.027 327.115 340.772 357.29 366.078 373.706 327.54 296.083 266.053 243.796 228.233 198.829 162.859 131.558 106.825 91.0925 65.9392 48.4185 19.6464 5.04103 2.83893 1.81214 1.9389 3.36179 4.78299 6.4821 10.0635 14.2392 15.9017 24.0287 45.3573 58.338 78.1923 96.2719 115.76 149.519 174.188 195.768 218.542 260.534 275.548 292.137 296.044 320.366 369.356 418.639 469.194 542.105 573.778 596.187 646.514 716.124 777.827 813.96 852.848 884.512 919.058 901.755 713.576 595.675 507.56 508.291 501.354 550.691 607 610.634 544.235 545.471 534.199 454.624 372.997 294.921 317.055 361.264 492.81 420.69 325.577 294.147 295.238 288.928 308.304 224.683 198.146 196.045 200.889 218.243 257.333 318.637 431.942 523.619 485.684 419.04 449.496 497.602 452.259 435.929 447.496 480.049 582.146 633.344 630.974 529.507 366.469 263.527 201.05 141.606 94.2272 75.3084 60.3895 46.1621 40.0647 30.8275 22.8659 19.41 18.4158 17.8762 16.7846 17.2527 20.7569 25.7244 35.7239 49.6213 55.7302 61.2235 75.9096 88.6833 107.746 135.22 210.687 268.779 328.362 401.111 478.18 569.367 666.252 641.448 563.885 479.309 392.029 288.256 168.513 123.107 103.486 75.9236 44.0042 25.215 16.7707 14.2877 14.2534 14.6071 14.8704 15.4533 16.1266 16.3284 16.5411 16.3327 16.7674 19.8765 40.5076 79.743 116.685 145.245 159.831 201.379 314.739 308.911 245.686 212.452 195.002 191.35 207.862 218.478 221.811 233.345 271.802 350.926 438.378 452.032 504.044 608.418 745.15 794.592 758.743 622.803 498.441 415.066 346.392 315.678 270.525
87.5592 77.5178 63.8971 51.5027 37.977 30.0501 27.8429 27.4943 26.2705 24.5894 24.4515 36.8451 59.0722 73.5291 75.4563 77.1587 90.6681 115.319 108.384 113.106 115.396 111.952 103.369 69.5687 48.3212 35.6489 30.4101 44.3587 54.6513 59.1389 86.5575 138.423 133.685 68.5034 100.048 105.361 113.59 138.344 154.658 165.59 191.999 193.487 192.588 200.008 215.92 231.348 221.592 201.054 182.902 173.865 180.108 179.307 180.319 184.732 185.816 208.12 189.403 154.258 124.813 91.6929 82.2592 86.688 47.1045 51.6134 64.0055 73.6954 72.5059 63.1298 46.3085 40.9862 43.9804 59.761 60.2259 65.5851 69.9958 75.3366 84.5314 76.2786 56.6474 54.233 56.3624 56.4695 63.1018 70.6333 69.854 74.7592 93.2342 86.8994 33.3041 22.1386 18.7213 21.6718 30.7231 34.1918 26.2809 36.5612 55.0572 77.8127 98.9832 123.177 166.329 211.712 267.365 357.623 439.291 548.215 565.378 511.16 438.427 366.052 329.655 299.089 267.395 234.337 214.207 214.94 192.768 178.644 161.287 98.8847 82.6571 54.2421 8.76285 1.61411 1.62875 16.4669 39.977 63.539 93.1875 122.711 151.618 194.39 248.086 313.93 384.705 430.204 443.226 445.177 471.029 515.36 560.682 591.929 608.354 590.288 586.533 592.218 610.706 541.668 475.26 436.613 401.19 374.408 370.11 341.253 339.788 323.001 315.339 294.595 278.468 296.159 302.959 314.662 304.263 276.982 242.357 205.069 170.283 152.457 142.738 152.543 201.07 215.345 182.478 139.307 107.056 70.4875 48.3212 38.4818 30.9045 34.682 39.7846 102.976 135.675 165.841 191.871 209.52 227.387 252.156 284.946 316.565 329.679 349.027 360.477 380.466 364.734 317.527 278.033 256.062 237.076 214.033 169.189 135.001 118.604 104.131 82.7474 59.0848 25.3998 6.84633 3.27699 1.82551 1.8273 2.18734 3.12245 5.27467 6.63595 8.76564 10.6351 19.456 41.3076 61.6312 73.8296 85.606 102.012 129.855 153.136 167.768 195.631 217.79 227.012 245.352 263.295 306.61 358.937 417.513 466.203 514.278 566.204 665.687 736.001 791.053 822.746 891.863 955.03 1001.95 1036.45 936.945 711.393 572.686 523.044 519.913 492.908 547.746 617.195 586.086 528.079 566.111 645.511 592.914 508.777 450.705 434.328 410.098 490.138 521.844 487.121 493.989 436.958 388.429 338.19 250.887 217.822 208.532 210.329 231.388 262.582 308.694 385.2 506.924 583.336 542.684 553.236 555.67 477.201 440.519 435.909 467.681 537.168 607.814 591.39 445.619 308.568 212.976 158.084 112.038 84.1967 73.8464 60.4935 48.2658 41.9395 35.3473 28.1913 21.406 18.9766 18.4711 18.5883 20.5504 24.3365 30.6899 45.2702 57.214 61.1393 66.635 82.2436 97.2147 123.168 172.432 236.708 294.195 349.144 431.076 547.023 653.775 628.976 556.097 465.455 395.224 321.142 272.964 194.6 146.212 113.168 77.356 38.2483 24.3715 16.0393 14.6864 15.9712 16.1218 15.188 15.9848 16.715 16.8034 16.7999 16.527 20.9954 24.7507 42.178 80.0828 117.305 145.135 163.708 186.868 262.91 361.926 312.355 300.718 233.489 225.313 226.761 234.084 240.767 245.416 258.718 299.502 374.46 450.137 542.475 624.741 725.501 825.483 789.148 650.698 501.779 372.452 316.14 277.758 240.774
86.4288 75.9483 65.2525 52.8053 39.7334 31.6492 30.784 30.2793 27.3006 24.125 22.7357 31.3001 48.8348 69.4823 81.1276 92.4262 128.778 125.954 93.5161 84.5296 90.7797 85.9098 84.7613 55.4657 36.1138 23.3929 16.9086 29.4038 49.8368 73.8995 117.218 179.45 108.23 46.1248 64.1831 91.3893 112.94 149.748 172.329 194.323 201.749 204.698 198.064 201.839 212.948 226.3 239.762 210.928 184.397 170.199 170.747 178.841 176.525 180.349 176.389 179.413 193.396 169.642 134.597 100.358 72.9517 71.3838 55.0711 57.0289 70.5432 91.0252 91.4025 81.5265 58.5241 56.5547 59.6322 66.3569 61.8433 65.5718 69.0335 73.2252 79.2298 80.2909 56.8809 47.6023 48.6627 50.4553 42.4515 42.5171 54.5181 46.0151 59.8389 37.4538 8.02509 6.07965 8.13723 10.8922 13.1849 10.1485 11.1867 21.1961 35.4678 60.2776 87.5073 116.095 151.194 199.507 257.421 354.072 460.988 572.434 588.449 526.536 445.732 375.667 338.263 303.519 281.496 252.998 225.313 217.432 199.096 178.337 149.608 90.1125 65.6757 31.1702 2.30328 1.35845 2.01069 14.9685 37.5229 64.6404 96.8512 142.882 186.821 204.198 240.802 273.981 317.831 373.863 408.2 442.773 486.882 510.583 537.241 562.201 591.946 607.745 644.35 646.634 627.196 552.304 504.332 482.418 454.093 413.12 370.946 354.264 356.215 330.499 318.713 297.463 281.284 303.153 327.272 339.907 325.213 299.827 268.025 227.973 182.94 179.038 159.084 149.301 188.524 197.511 156.12 113.52 86.9733 68.4183 68.6883 51.1091 36.2968 25.4218 30.1887 79.6672 131.268 163.937 185.51 203.893 224.246 247.187 274.941 306.434 326.333 345.155 356.866 367.286 378.676 331.166 298.843 273.829 248.236 225.136 187.749 148.189 136.4 114.539 97.7899 76.3626 40.7746 10.1649 3.64075 2.52815 1.87741 1.72297 1.9379 2.94498 3.74358 4.1096 4.77012 13.4205 29.8561 51.9252 62.833 72.3284 91.6226 115.268 130.44 140.094 159.611 168.274 192.386 228.196 276.625 339.693 400.328 443.173 496.762 547.089 606.416 689.942 778.761 824.593 883.6 967.478 990.617 1027.98 1050.22 898.984 707.995 561.599 510.854 499.136 487.281 518.429 587.359 561.936 556.522 596.153 588.537 580.813 583.226 442.022 324.594 279.364 335.899 500.437 616.038 658.614 551.708 467.505 363.136 261.484 230.455 218.803 229.604 245.896 266.381 316.005 385.289 451.321 563.254 642.025 620.82 578.483 548.814 490.595 459.61 478.603 508.718 555.571 515.596 376.311 259.125 154.732 109.267 89.1856 80.516 72.3979 60.8062 50.5334 44.7275 39.8731 34.8653 27.4735 22.692 22.5143 24.3045 26.9751 31.3248 41.8372 55.4141 66.2417 70.4493 73.9022 87.6548 108.878 149.588 216.866 269.059 323.727 393.208 473.503 576.869 696.274 663.732 563.318 436.964 342.888 263.737 200.225 169.154 143.235 115.034 72.5207 31.1982 22.7405 16.0765 15.2175 16.1036 16.9147 15.8427 16.132 16.2979 17.1133 16.7619 19.1386 27.5918 34.0445 50.209 82.3904 118.609 151.57 167.678 189.734 237.429 366.54 382.379 346.986 284.692 259.284 252.467 249.672 249.077 250.816 261.064 285.041 339.99 416.625 524.849 589.615 705.31 772.64 790.229 665.858 505.367 346.194 288.99 226.89 195.726
85.1591 74.852 66.6304 56.8144 48.6585 43.1863 36.7129 30.7308 24.8864 20.9464 20.7548 30.8911 43.017 61.4618 85.3015 114.876 154.86 139.741 100.695 79.5728 74.4168 68.4522 83.2098 64.662 32.4702 16.0667 11.7465 32.0185 52.9936 77.8506 135.674 205.094 89.4789 48.6809 56.6644 83.0633 121.399 142.258 168.083 197.751 216.578 216.519 194.06 196.96 206.122 220.379 240.895 238.731 204.99 189.689 185.765 189.689 180.843 179.429 173.289 163.492 175.032 182.156 153.187 116.797 91.3926 65.8054 63.6149 73.4475 81.8567 96.8386 107.061 109.543 88.5216 77.3363 79.4777 84.1776 68.9495 69.0325 69.4365 74.8619 81.0802 82.6965 66.8941 48.7904 42.1839 40.8086 36.0372 31.6311 40.9893 33.4754 28.4843 10.8371 6.44766 4.04017 4.1759 5.96484 6.36181 7.79425 10.5498 15.7768 25.7298 42.6835 68.5508 103.514 142.293 180.585 241.853 355.5 490.17 566.364 595.692 541.546 464.559 392.766 347.289 314.12 287.46 267.161 246.505 221.875 210.972 181.599 148.186 88.8776 48.9215 5.58989 1.78588 1.24278 3.5296 11.0864 33.3791 68.131 108.903 147.025 191.925 248.616 288.044 317.55 347.83 379.261 417.786 448.718 475.327 504.34 541.195 568.787 593.54 616.259 639.375 673.631 654.919 579.178 540.327 516.419 485.451 441.924 394.548 370.723 375.988 363.426 347.982 316.046 294.87 304.006 338.539 348.307 335.408 321.129 281.267 245.642 210.028 201.045 175.066 154.637 182.983 188.695 145.58 113.358 85.1869 75.3843 95.5546 62.9448 38.1029 28.7955 23.1132 31.2848 118.111 164.117 185.082 198.888 213.914 235.054 259.98 281.695 307.057 336.034 347.699 347.879 367.211 351.34 320.184 283.541 257.606 230.132 198.975 156.246 138.015 128.908 114.034 102.308 65.3173 22.6639 9.88976 3.14111 1.97375 1.66423 1.58919 1.54907 2.11634 2.49688 2.45322 5.40469 19.6301 38.2993 53.6252 63.4371 77.6498 96.2284 105.151 118.591 132.146 151.128 189.047 240.919 300.61 351.053 417.948 509.407 598.074 633.309 677.186 742.098 791.093 840.145 900.856 951.323 991.248 1047.11 1031.58 839.572 678.328 552.701 508.474 497.604 486.229 522.748 599.225 569.148 564.08 546.784 505.915 525.406 549.211 391.135 302.182 293.515 322.295 386.549 525.211 666.946 635.898 531.165 424.638 294.725 252.965 264.51 280.98 279.129 282.891 320.661 379.604 447.436 534.994 629.785 618.567 581.169 580.686 535.286 520.895 512.381 520.035 543.118 477.645 367.793 249.107 145.354 100.261 89.0173 82.5941 71.8371 68.5041 56.4962 53.0198 49.3228 43.0585 35.9731 30.4284 29.5942 31.0788 38.4522 47.5354 52.3825 66.3836 79.9411 84.1682 84.6322 99.9747 157.215 200.678 232.92 290.405 356.514 431.481 537.551 639.889 730.591 673.524 578.655 454.382 330.729 227.283 153.087 127.677 108.178 90.2902 56.429 29.7232 20.9931 16.1593 15.7445 16.479 16.5029 16.6781 16.5792 16.0897 16.5511 17.2193 20.9093 29.4376 42.8208 59.1634 80.0837 110.359 158.437 181.726 198.524 229.533 288.924 417.427 398.623 372.082 296.778 272.811 260.885 250.5 248.6 256.983 270.579 310.205 382.588 469.457 557.008 628.591 672.976 726.842 614.785 467.61 347.656 277.445 197.932 160.974
78.6426 71.6584 65.9728 58.8822 49.9203 49.9377 45.1072 35.6368 24.9577 20.3268 23.1456 38.176 51.6235 65.9094 91.9222 139.984 171.303 139.194 103.575 82.3011 73.4957 65.819 79.362 83.6963 58.0456 23.3307 12.8082 33.0235 53.2767 80.7842 146.406 214.556 76.1755 55.4796 61.8272 91.1613 111.417 139.19 160.771 179.912 207.135 210.401 191.454 186.211 193.948 206.561 225.763 256.109 255.757 229.472 217.125 202.15 187.695 180.739 168.779 148.996 155.623 173.592 176.156 131.598 103.996 68.69 80.7532 97.9434 106.024 112.711 124.198 131.102 131.098 116.157 114.723 107.51 83.9016 83.418 81.5073 86.1561 90.1049 88.9667 80.9185 61.3213 50.8284 50.7182 56.4242 55.2191 33.6072 23.4597 13.3813 11.6796 11.706 11.6717 8.06929 6.45897 7.24302 10.4971 14.4237 18.7132 22.2399 33.2123 52.9683 80.752 124.523 174.156 233.125 361.675 488.471 554.261 593.246 550.335 483.664 405.497 350.377 318.469 299.671 284.834 272.975 228.963 214.765 196.466 151.272 89.5896 34.0001 2.63245 1.82414 1.23404 5.16105 13.3573 35.168 67.7246 114.941 153.336 191.712 242.535 311.984 370.348 411.727 433.232 472.552 513.81 547.044 574.039 594.628 614.529 610.754 622.804 612.929 630.33 647.325 606.218 562.228 532.11 506.402 470.235 442.222 408.84 398.527 383.718 367.241 335.359 328.041 342.496 355.331 374.441 348.857 316.786 279.817 241.643 226.606 221.496 188.496 175.727 184.306 200.14 157.963 118.003 92.5006 94.1381 123 81.0654 54.9466 35.7856 22.5531 22.1562 60.529 165.085 182.495 190.458 194.248 209.934 231.181 257.052 279.742 296.791 315.359 327.394 343.314 344.709 323.944 291.099 261.996 224.734 190.312 163.21 165.091 155.829 135.493 122.667 93.1225 68.3204 43.3834 4.59845 2.2955 1.5498 1.43796 1.36537 1.4351 1.67159 1.73734 1.87825 6.32794 25.554 41.8526 48.8253 60.8226 75.0558 83.5204 98.8882 109.395 146.804 186.269 229.48 283.963 356.468 449.393 570.629 673.277 728.163 771.612 820.23 875.754 925.269 994.959 1043.5 1075.79 1019.23 913.35 753.74 626.146 591.264 501.406 496.249 480.849 524.973 579.924 573.964 572.938 535.621 507 501.597 495.177 370.612 312.148 297.456 392.445 462.062 545.844 627.821 648.743 589.316 495.517 375.517 303.365 327.255 367.995 348.432 378.671 391.512 438.443 469.432 551.237 633.359 624.453 580.242 550.801 515.623 523.536 538.344 554.26 572.057 504.332 394.899 247.381 156.748 113.902 95.9873 91.1829 84.3575 86.7481 73.0065 66.2216 62.459 54.2232 52.0334 48.3714 47.1085 47.8685 51.2795 55.902 64.4106 76.0325 92.7565 97.9998 103.036 117.206 178.522 236.145 286.273 316.246 365.934 466.798 585.304 708.253 738.28 648.035 549.659 439.524 328.438 212.673 132.707 107.631 90.154 67.7615 41.6503 25.421 18.9967 16.0489 16.0759 16.2811 16.6216 16.4047 16.7603 16.2111 16.2811 17.7829 24.3524 41.4881 65.2567 76.5537 94.1223 149.554 220.126 204.056 215.886 235.556 258.28 349.576 433.998 439.027 339.718 298.481 277.76 258.902 250.429 251.986 262.829 286.604 350.316 421.394 466.83 535.858 598.366 632.779 510.915 386.393 308.776 234.221 174.562 136.947
68.7286 63.9449 60.4441 56.1872 50.0116 47.4116 47.7402 39.9583 23.3655 19.9124 30.3351 53.4737 71.8638 84.4358 101.274 145.388 167.274 126.607 97.6316 72.9624 67.0511 63.7973 74.2318 91.2068 78.8515 41.7241 20.87 35.6035 52.2291 78.482 145.117 209.506 78.2086 62.1689 74.4114 87.5059 109.441 129.861 152.015 176.246 186.87 190.627 180.583 175.558 190.343 200.181 215.213 251.754 276.783 279.643 262.206 225.45 196.754 190.967 175.61 142.582 146.93 158.062 171.309 150.189 111.467 85.7738 104.517 122.139 133.475 139.03 149.514 155.535 180.652 165.022 155.275 139.16 110.768 108.282 108.27 105.959 105.649 105.498 101.071 85.9456 74.4089 80.5759 89.6106 83.7885 52.3511 31.8873 22.5462 24.3351 28.5603 36.077 23.3497 16.9873 16.7177 19.2864 29.447 30.0191 31.901 36.5022 44.324 66.0045 103.585 173.865 235.799 339.788 459.26 535.661 584.758 559.344 485.343 425.342 368.17 337.049 325.495 304.778 298.929 252.843 217.779 211.958 167.627 88.9896 29.1232 2.14251 1.59217 1.21086 4.13127 13.5428 39.1516 76.6441 120.427 155.233 198.05 242.547 301.801 368.035 423.421 472.015 507.403 568.261 605.619 644.88 673.954 694.101 687.854 652.645 645.77 630.383 629.265 619.772 574.386 556.174 554.947 528.327 487.708 457.712 418.3 406.548 395.634 361.197 388.178 397.406 412.386 406.51 358.786 315.712 279.556 248.441 241.93 232.52 207.306 198.991 187.022 219.048 180.693 132.195 106.172 111.602 146.906 117.32 102.623 61.5314 29.9165 26.4742 27.1466 124.375 148.257 148.967 153.305 173.523 198.512 226.633 244.801 258.659 284.188 312.98 324.754 338.342 325.71 307.835 268.051 214.555 203.443 206.927 196.668 173.644 161.286 140.919 127.735 123.171 75.6747 21.9378 2.88836 1.7163 1.3368 1.30013 1.26206 1.3827 1.39504 1.39664 1.51038 11.494 22.86 31.259 45.1745 57.2396 65.4095 78.7701 94.3591 126.579 170.914 228.346 297.359 393.064 490.526 568.45 654.522 751.911 823.674 882.069 933.284 1028.34 1109.9 1151.78 1089.38 944.06 804.045 669.92 628.591 573.378 503.267 498.138 478.376 488.047 543.615 576.339 580.693 542.25 499.724 479.552 454.977 363.004 334.546 294.544 334.33 409.933 514.515 533.922 504.428 526.079 544.86 452.187 390.189 409.444 450.984 463.474 532.716 501.37 507.863 468.645 482.925 511.22 523.489 510.065 452.5 372.11 367.131 438.649 529.446 591.559 539.362 376.911 253.247 208.795 155.752 128.81 111.292 105.774 100.254 85.4287 79.3018 76.2914 68.6153 67.2215 69.0949 71.87 71.7375 65.951 62.7134 76.1985 90.4688 104.704 108.997 112.651 119.937 160.305 228.441 276.15 336.082 402.7 492.655 611.848 700.609 678.779 612.419 557.121 446.467 323.787 215.437 122.536 90.5507 70.3931 46.8203 25.6644 18.8804 16.9005 15.2674 16.0066 16.3231 16.1136 16.3231 15.8634 16.2987 16.4948 20.0525 29.6062 57.0811 107.523 127.044 125.68 201.947 304.952 240.841 234.397 246.705 272.23 313.396 396.555 452.711 356.576 314.951 295.097 276.882 254.632 254.374 259.979 276.456 310.626 342.659 416.385 474.556 533.24 573.488 457.698 345.491 265.886 192.5 155.452 116.588
60.2958 55.8895 52.2117 49.1116 45.3898 42.2022 44.4599 45.577 28.2725 27.1557 51.8183 82.0221 103.003 123.245 130.25 145.572 151.125 116.568 91.93 70.4519 68.1998 65.2753 71.6896 88.6038 88.8233 56.1248 36.6632 42.9218 53.5428 77.8257 143.463 200.058 97.6199 87.3187 75.5185 88.3161 102.758 120.167 149.759 169.304 177.502 187.856 178.383 172.118 192.392 200.718 210.601 225.352 246.84 260.924 254.652 245.576 223.661 210.856 190.68 156.727 148.056 151.141 161.167 168.69 154.25 138.144 141.856 146.336 157.795 166.968 181.878 185.702 224.265 237.827 207.671 185.521 146.411 135.831 139.142 130.499 130.647 128.812 128.132 123.341 110.419 111.003 127.839 116.24 79.7135 51.3761 41.6509 45.7167 55.0825 64.498 59.8971 51.9338 43.4335 51.181 60.8743 53.3342 55.3016 55.3769 53.1892 65.1643 94.3878 157.166 250.454 347.331 430.523 500.786 552.488 547.001 494.959 452.613 396.158 358.682 354.77 322.721 319.03 282.98 236.046 224.763 165.78 64.1712 21.7026 1.84362 1.39231 1.08595 1.99443 8.92548 38.8214 79.8389 121.652 158.043 202.26 256.21 314.136 372.447 411.731 476.295 531.853 579.727 615.826 649.745 680.239 723.328 731.297 726.044 717.418 694.101 663.902 648.103 617.54 567.343 579.304 568.188 530.725 492.356 435.053 419.59 416.375 418.876 424.583 458.863 461.79 407.202 357.275 316.533 293.874 277.358 280.448 257.258 227.651 231.515 214.184 231.372 196.475 151.57 139.873 131.094 171.925 166.981 160.026 111.216 45.3284 34.4921 28.0229 36.3127 62.6223 86.4551 113.694 141.168 162.223 187.434 212.59 243.864 275.775 304.677 315.648 343.79 337.428 317.737 283.203 248.016 252.542 247.494 224.968 215.575 191.82 162.023 165.385 144.445 107.84 57.5357 14.259 2.25929 1.52854 1.21288 1.20495 1.1747 1.23899 1.04533 1.19012 4.46277 12.1332 21.8805 33.289 43.0086 49.543 64.3743 84.6587 108.08 154.858 218.368 318.202 419.249 502.62 581.31 652.974 741.923 811.745 860.423 897.498 956.034 1036.22 1091.33 1019.55 869.778 709.654 640.479 612.801 567.029 494.363 483.084 468.959 464.878 526.858 570.799 563.015 528.934 489.927 447.392 409.602 372.997 339.37 300.998 262.038 266.768 464.378 451.223 351.706 383.559 500.64 512.549 523.085 575.079 561.637 603.841 567.466 456.22 381.351 317.451 305.485 339.626 334.228 295.179 266.379 232.657 242.751 303.058 438.839 532.262 561.914 468.651 346.848 291.008 232.813 187.507 141.186 123.784 113.127 99.104 94.8924 86.529 81.0383 84.512 89.685 94.557 89.5483 79.432 70.3017 92.1887 115.098 120.035 119.142 113.768 118.573 171.873 263.576 331.454 341.751 413.758 537.313 626.55 627.926 589.219 546.501 500.812 437.179 330.382 228.881 137.956 84.4186 58.7269 33.8575 19.2888 14.7261 13.0526 14.2823 15.0861 16.1972 16.2987 16.0204 16.3266 15.7795 17.557 24.2689 36.1974 66.999 139.23 186.5 168.673 226.488 322.609 280.775 255.638 261.135 318.575 369.453 433.097 469.393 375.498 326.705 312.04 301.971 278.5 260.157 260.194 272.024 274.274 289.595 350.077 405.328 475.886 504.969 423.478 352.274 262.89 193.662 143.647 94.2593
56.6638 53.4845 49.1969 44.7719 41.8487 44.2624 45.6679 47.4403 49.7819 59.1425 80.503 108.677 150.392 162.726 164.525 160.754 136.828 109.808 90.9693 87.6972 89.6404 78.2079 74.5608 82.9009 78.3358 65.4994 53.5787 56.9103 73.7284 100.582 173.435 223.098 150.725 99.6329 83.1547 82.9718 94.9217 118.243 143.133 160.791 174.605 190.267 180.559 172.458 176.455 182.262 193.08 200.278 208.727 216.387 221.857 228.018 234.063 227.422 212.614 194.499 182.505 169.867 161.245 165.277 175.309 184.424 201.818 211.713 182.392 178.659 195.355 209.893 268.961 300.203 253.766 238.854 186.969 178.189 176.698 165.522 162.276 161.221 167.928 187.598 179.168 176.17 191.166 163.561 133.109 93.251 70.4601 68.0404 80.7231 89.4416 95.7537 92.1296 90.2797 100.747 96.2659 87.1196 87.5632 84.8804 75.667 74.1594 119.75 162.479 257.761 357.021 410.936 466.414 516.042 510.864 492.043 458.449 404.413 372.53 363.723 332.025 325.438 307.766 246.816 214.142 136.286 47.8618 7.7811 1.58205 1.21289 1.17846 2.39838 7.00887 27.7854 74.295 113.164 157.951 200.446 245.42 303.729 359.076 401.315 453.182 499.272 539.112 572.408 619.152 651.753 687.548 694.496 704.518 702.274 676.968 646.742 633.029 629.071 602.042 576.211 565.199 557.696 510.574 484.353 455.987 449.484 469.114 486.378 498.987 447.31 381.664 350.511 331.467 311.553 303.14 306.538 277.252 252.405 271.089 260.473 249.703 222.129 192.012 167.302 161.894 187.346 185.575 166.319 127.538 58.6309 51.3056 38.4676 32.2026 43.1709 67.5096 88.05 109.405 131.23 154.131 185.997 219.007 255.11 281.399 303.752 343.484 359.432 344.867 326.587 310.019 291.757 276.312 258.77 237.26 213.365 200.369 184.184 169.329 133.575 70.3231 33.8637 3.03903 1.87149 1.21918 1.07583 1.15226 0.946516 0.954657 0.958598 2.38783 7.69413 15.1035 23.2715 30.3552 38.9402 56.1444 75.4333 94.9635 133.621 196.327 302.04 410.586 485.91 555.522 651.012 723.898 756.112 728.172 719.081 742.444 821.268 915.261 940.949 781.147 677.729 618.627 593.104 568.411 499.715 460.501 453.646 452.795 538.282 553.809 540.929 515.042 471.04 425.23 379.012 356.619 339.062 301.676 288.311 284.012 366.79 391.533 335.682 321.175 409.645 505.707 552.586 646.029 697.46 551.799 405.63 313.008 257.032 206.019 177.47 165.137 140.529 126.207 134.741 143.947 174.986 249.053 362.322 445.924 493.242 509.994 452.65 391.911 320.62 255.113 174.167 145.535 127.639 112.01 107.493 99.7548 88.9704 100.711 106.592 109.385 98.8929 86.2083 85.4784 121.248 137.336 139.501 129.895 121.69 131.804 188.22 264.555 345.59 406.91 479.733 551.75 542.383 546.945 515.708 477.022 432.453 379.95 310.008 210.385 138.943 84.6592 45.048 26.1457 14.512 11.6516 11.2058 10.962 13.9489 15.308 17.2193 17.4707 17.1133 17.6292 20.0419 32.824 44.6996 70.8367 161.858 225.242 229.989 268.766 352.106 307.656 273.704 282.352 314.301 385.14 492.081 510.143 407.481 344.038 330.644 326.055 334.931 275.623 261.763 251.224 250.885 244.031 269.351 330.391 385.341 448.011 383.723 334.412 264.804 193.443 112.647 81.3944
55.4912 56.0053 52.1104 48.5842 45.3991 49.1951 48.7641 50.1039 60.0178 72.1831 89.999 132.919 195.678 215.142 203.97 170.048 126.517 99.1776 77.0008 80.4442 86.9373 82.6698 76.1645 79.5003 85.6876 90.9674 76.6795 78.0409 108.795 142.219 233.936 240.994 203.351 127.064 90.7836 76.6359 94.3023 112.087 134.841 160.118 175.572 168.796 161.599 156.7 157.722 159.511 176.103 181.082 185.559 190.095 195.127 211.983 216.232 219.478 235.178 242.133 223.599 209.718 199.375 184.502 179.136 188.291 216.492 266.969 237.992 211.42 208.151 228.573 333.302 335.624 291.097 282.441 255.219 219.423 217.675 208.799 197.258 206.736 251.715 250.221 245.77 241.402 233.138 203.042 213.931 187.973 126.37 104.363 102.115 110.201 123.094 141.263 150.647 152.453 141.454 129.098 115.328 109.104 99.2961 86.1426 133.18 176.963 251.224 343.33 395.845 433.957 480.933 484.891 477.581 448.526 404.749 385.379 361.909 340.051 326.381 313.794 268.357 211.332 102.862 20.8422 1.744 1.31135 1.08436 1.96363 4.8438 8.72001 23.0007 56.4797 96.2784 146.319 185.503 225.338 272.944 322.432 369.725 410.948 451.949 500.756 519.292 544.434 564.599 601.352 621.977 637.103 627.368 622.739 610.27 611.101 609.806 600.236 598.65 621.513 603.193 545.548 519.415 493.998 473.752 505.399 537.823 494.078 414.289 380.856 360.57 355.838 336.062 334.797 321.01 300.546 298.139 315.92 310.439 282.397 258.796 238.6 202.044 199.981 206.618 187.321 155.473 117.573 87.2996 94.6091 56.1071 37.0527 42.4342 63.2708 80.4473 96.551 120.284 150.906 181.323 209.612 239.898 266.156 295.26 340.549 375.951 366.383 355.114 340.038 319.08 293.52 274.198 252.721 236.282 229.809 201.224 181.433 151.743 112.708 84.4558 19.5677 2.05254 1.5441 1.36747 0.964889 0.851211 0.638635 0.649836 2.13553 6.9172 11.7061 16.7182 22.2349 31.4858 44.5067 65.3198 81.9072 104.304 161.139 258.261 358.43 472.036 546.783 644.997 671.156 616.808 565.84 574.262 617.013 703.735 805.878 876.786 764.641 654.151 603.834 579.397 563.11 510.74 462.617 436.197 446.263 561.033 536.384 513.713 492.126 459.997 421.029 375.029 343.095 321.487 330.768 328.992 331.701 325.813 333.797 327.522 330.038 404.476 476.475 540.017 597.107 613.483 396.745 284.94 226.097 175.783 134.741 113.812 86.5102 66.6744 68.1116 77.6669 104.375 129.992 202.655 344.8 434.567 474.299 442.877 377.706 367.036 363.122 306.142 226.987 168.971 139.582 125.057 129.141 135.458 120.065 112.105 120.116 121.53 108.825 96.2045 98.2742 138.535 151.392 156.556 140.48 132.911 149.021 212.021 270.638 332.812 418.567 485.211 465.36 450.995 430.513 434.281 413.385 379.122 348.369 288.926 175.068 114.21 71.4632 36.6441 18.1648 11.5924 9.96415 9.81225 10.204 11.0323 14.8775 16.5909 18.3434 18.6324 20.0231 25.1481 43.3058 62.0288 68.9161 118.448 186.119 214.645 261.187 344.71 349.228 297.035 302.122 314.77 355.757 473.502 563.891 477.212 380.538 347.778 346.251 337.936 293.536 254.364 241.373 223.789 213.375 225.165 256.586 337.199 396.326 344.68 270.203 188.345 155.545 123.869 98.882
59.5672 66.3155 64.0213 62.3959 61.8341 64.0397 61.3219 62.6438 64.0637 72.1244 91.8749 146.775 221.083 248.701 221.055 159.762 110.8 85.8378 65.6668 66.8679 71.4921 74.4645 70.7946 82.8672 107.463 128.099 116.409 114.845 138.428 183.732 268.58 286.804 233.874 151.715 106.689 81.9043 89.1991 103.158 135.17 166.151 158.103 146.122 144.636 141.943 143.703 147.14 162.194 165.589 173.388 174.746 170.958 186.741 195.51 201.795 223.523 252.14 267.789 253.407 236.86 224.498 207.798 196.333 207.437 247.249 323.316 321.495 266.122 298.136 400.865 359.678 324.32 313.042 316.293 294.725 266.32 270.234 271.818 251.615 306.106 333.059 316.512 301.534 280.406 266.032 283.569 280.442 206.64 174.843 135.038 156.189 172.05 202.106 220.669 199.437 184.008 166.923 150.299 134.763 133.405 117.002 137.136 188.372 261.225 331.155 375.769 409.377 439.402 452.41 464.08 439.908 411.343 392.866 371.423 338.542 322.335 303.166 284.197 201.368 73.0087 5.22135 0.958782 1.10179 2.08359 5.37856 8.30241 10.5248 18.3909 42.0006 83.0359 131.73 167.747 211.4 261.856 319.677 359.88 403.374 432.14 458.897 474.377 479.053 488.498 515.5 530.046 554.884 560.009 567.343 563.704 558.784 572.45 586.468 592.264 602.816 616.036 588.769 532.718 521.821 514.33 545.965 514.885 463.23 413.968 390.794 384.037 371.722 370.28 380.588 361.444 341.582 342.062 354.472 339.872 319.365 301.625 272.209 231.116 236.453 221.206 191.804 150.146 116.918 124.526 126.047 66.2052 44.3011 48.3251 63.8317 82.8068 94.537 110.66 144.911 179.444 208.645 238.95 268.026 295.21 338.051 382.302 380.883 370.744 357.308 341.198 320.02 291.272 282.511 257.359 241.53 224.246 198.181 195.259 173.799 130.434 64.1152 7.89446 1.76418 1.22102 0.995474 0.569164 0.429794 0.412335 1.46192 4.02328 7.52845 11.4187 15.6943 21.356 31.1224 49.4994 67.1059 85.2286 120.062 193.605 258.725 429.677 505.967 530.426 513.403 478.209 499.895 552.758 625.864 722.398 808.921 898.531 775.113 629.459 575.298 555.134 557.889 529.816 464.489 425.623 428.129 535.762 499.824 487.742 457.786 427.182 397.34 372.276 345.748 333.195 354.203 372.787 367.217 367.959 357.24 335.643 367.683 441.748 493.233 545.435 622.954 508.528 327.762 227.323 173.425 112.623 77.6114 64.7796 52.4339 40.1714 38.3145 51.8539 80.4063 100.002 151.432 323.65 393.673 419.945 353.316 278.129 266.417 302.722 333.016 285.419 208.935 178.54 157.042 166.205 162.715 171.399 142.924 135.116 133.808 121.09 109.304 116.095 161.776 166.356 168.921 149.738 138.987 160.402 230.152 279.885 350.293 432.805 424.602 372.25 351.31 315.672 342.72 349.093 300.418 284.365 254.444 169.387 83.7275 51.9351 28.6409 14.2823 9.56271 8.73291 8.8836 9.22409 10.6551 12.3576 15.8702 17.8905 21.9378 25.661 32.1966 50.4683 72.7997 79.7395 95.8544 115.679 143.925 183.606 265.467 337.626 335.577 316.926 326.832 356.079 449.249 572.686 558.946 432.008 359.803 343.748 337.139 299.778 231.535 212.524 203.706 195.476 186.912 209.064 309.362 364.395 286.152 202.95 160.526 150.433 153.107 132.53
83.9657 86.5301 82.993 81.1208 78.6858 83.1727 82.7589 78.2988 78.5756 75.0799 92.4378 176.983 233.625 213.034 185.379 144.643 109.835 87.4318 67.638 62.5889 67.679 77.6003 82.8804 104.722 136.076 141.263 146.986 150.829 177.41 225.026 295.411 329.824 269.44 185.853 135.136 100.176 83.6233 101.862 141.803 155.083 141.954 135.435 133.128 130.149 133.132 139.857 148.93 149.458 162.723 162.36 155.354 167.272 176.486 185.151 211.64 233.506 267.386 291.397 280.612 247.11 225.614 212.673 215.581 241.515 343.2 402.62 392.766 426.92 443.217 384.887 350.036 322.031 328.893 395.044 358.801 348.136 359.166 344.188 357.728 393.651 393.159 371.647 338.188 321.099 326.486 355.266 282.026 257.99 224.332 224.103 249.9 275.636 278.671 265.104 227.897 219.612 196.045 175.952 169.387 151.513 164.572 203.706 279.503 322.243 353.524 382.889 403.454 428.678 458.081 445.843 431.066 410.268 387.646 336.232 306.05 286.67 275.042 171.828 64.1023 1.72631 1.0064 1.9914 6.61239 8.22517 10.0888 12.7128 16.5275 33.1739 70.2858 110.605 148.855 190.567 237.043 286.3 341.638 379.659 403.988 404.03 407.095 419.613 433.19 448.143 470.089 484.597 494.14 497.471 513.873 511.723 512.055 537.654 561.359 577.983 606.16 616.39 604.622 573.882 543.733 550.801 487.438 444.439 438.257 420.366 407.513 405.627 418.476 420.45 400.071 383.255 383.149 387.141 370.157 361.829 358.948 305.311 261.632 256.477 224.511 185.862 148.249 137.467 142.571 126.133 72.15 51.6645 58.0933 72.7613 94.2377 119.108 128.127 143.286 171.024 200.927 226.515 257.749 290.406 332.783 388.827 403.419 393.501 374.208 364.536 353.182 320.826 302.307 278.114 251.729 243.257 225.66 204.959 177.403 118.987 65.4965 22.5181 5.72535 1.41393 0.892117 0.448629 0.323625 0.32886 0.659983 1.58863 4.12596 6.15629 9.15172 11.7476 21.6321 32.6271 51.7715 70.9535 98.8422 138.513 178.833 311.065 343.89 381.215 380.274 444.103 511.79 592.49 686.948 782.927 868.263 940.37 779.938 599.518 554.822 528.768 521.575 518.931 464.258 433.935 410.931 468.753 454.087 443.222 416.502 400.955 381.946 370.812 360.007 363.279 382.319 398.472 413.981 406.029 378.839 367.848 402.896 452.323 495.982 562.303 623.603 372.886 241.048 174.473 134.836 97.2113 76.7954 66.7206 53.9957 48.3679 46.1309 48.8205 62.682 86.0568 162.021 259.075 325.922 346.421 287.498 227.818 217.676 235.936 281.813 301.541 281.02 244.703 192.355 184.357 190.156 226.764 173.203 152.719 154.8 145.828 129.277 141.041 199.506 188.146 186.607 158.278 157.086 184.502 247.763 318.258 383.549 380.436 362.872 321.019 286.027 232.233 245.968 287.036 231.573 190.28 175.942 121.443 54.2403 32.9587 18.1823 11.09 7.86453 7.73903 8.23076 8.55132 9.38101 11.9251 12.8309 18.0493 22.8378 29.045 39.3403 59.5071 75.7514 86.356 91.226 103.645 126.661 149.029 192.225 288.199 365.348 324.516 318.531 336.503 400.382 490.815 576.276 502.144 378.56 321.713 323.788 317.949 238.962 196.437 182.181 167.019 176.996 198.065 289.121 280.854 179.614 131.51 99.6992 113.514 153.027 124.768
99.5542 101.898 99.881 95.8262 89.1826 84.0824 80.3315 79.8993 86.0587 85.0683 111.978 219.744 215.124 180.19 154.997 130.475 109.399 89.5332 73.5402 73.667 81.1229 90.9675 103.021 130.233 155.652 175.151 171.253 186.024 229.651 290.862 358.582 385.2 306.388 226.949 166.087 121.575 92.5396 105.298 132.76 147.928 139.336 132.125 124.617 115.492 123.034 122.747 132.194 139.142 153.323 152.726 156.658 162.675 165.832 176.233 201.44 216.962 237.206 268.352 300.493 278.879 242.294 232.476 256.961 296.004 344.435 374.281 394.221 411.5 442.717 427.654 372.894 346.502 337.845 406.229 470.204 447.633 439.963 430.171 408.943 400.476 407.766 418.069 389.012 360.665 360.231 404.525 373.112 380.986 343.751 337.106 349.835 330.936 317.344 293.306 274.629 263.135 233.438 209.587 193.53 190.168 199.068 219.886 287.266 317.714 339.946 359.033 381.364 420.846 453.723 448.141 447.435 432.521 406.226 339.542 284.819 254.321 221.919 131.02 48.5735 0.95878 0.961259 3.70801 9.39172 11.552 12.9149 15.4392 18.319 28.9749 56.8494 89.3414 126.194 174.133 221.973 271.66 311.402 338.722 351.962 340.091 350.989 366.374 382.858 402.782 433.361 441.249 443.095 444.854 444.534 464.715 483.73 524.706 560.691 589.54 627.497 633.682 616.579 597.934 543.864 490.703 458.383 446.151 438.064 466.063 462.002 468.172 477.411 446.505 413.487 412.662 413.738 413.866 400.508 394.129 391.168 335.574 295.954 265.581 225.229 185.088 162.519 164.57 155.189 129.71 80.3351 63.2886 68.1504 86.2633 98.3578 126.903 167.118 187.231 198.978 217.533 230.038 255.495 288.231 332.453 392.25 435.06 440.515 419.452 399.25 373.739 349.431 316.718 287.098 261.4 249.803 240.189 206.362 176.126 122.543 69.4177 43.7242 23.3005 5.77661 1.00947 0.537839 0.336038 0.289254 0.410027 0.638993 1.26266 1.68384 2.9035 3.35533 8.22006 18.1777 35.2989 58.6807 86.8272 107.939 137.165 202.968 222.509 284.436 355.912 427.347 531.971 685.007 795.23 876.283 933.116 885.321 702.731 553.034 528.768 505.002 484.232 478.463 454.564 429.619 388.803 386.305 408.214 422.736 400.323 403.205 391.704 378.497 374.52 381.981 415.703 436.372 445.382 427.013 407.512 392.132 403.465 422.131 483.743 600.84 519.619 329.102 233.312 173.74 131.549 103.115 86.8665 80.4545 77.0564 66.0707 58.1984 55.9284 70.6315 117.809 172.953 199.573 279.213 259.04 220.701 194.144 177.301 184.77 219.566 268.401 313.954 255.395 201.553 202.904 254.375 268.305 194.889 172.449 174.217 184.645 188.303 181.123 238.034 219.47 211.091 207.597 230.398 263.619 327.155 400.564 381.117 303.673 288.513 277.396 218.818 154.768 151.185 197.437 173.984 122.315 107.699 80.0069 44.5335 22.3748 13.8006 9.41295 7.30314 6.93482 7.37422 8.27694 9.31056 10.5386 12.3344 14.249 18.8707 27.5432 44.8797 64.7904 76.7098 82.3409 86.2946 99.0474 113.3 133.305 161.287 249.828 349.414 351.55 308.738 306.906 335.577 420.246 503.359 545.23 424.523 328.246 317.738 312.937 257.223 205.128 174.448 158.884 154.505 156.012 180.909 163.636 100.23 68.771 61.4602 66.0098 95.3541 120.124
105.989 108.045 110.009 103.957 90.9253 84.0212 79.3242 79.4517 81.1882 94.4078 151.786 232.197 189.697 158.28 136.405 118.901 108.826 89.2966 87.7677 93.1718 107.021 117.827 135.246 151.465 168.042 193.603 206.242 238.339 276.915 335.467 387.684 406.193 366.039 285.436 205.766 149.076 117.012 98.2782 113.136 134.747 133.797 138.622 122.82 107.497 111.136 110.819 114.959 125.658 146.847 151.121 162.283 167.603 162.965 185.159 200.214 207.908 213.687 230.835 262.973 284.125 247.545 235.834 251.073 271.6 282.982 301.355 323.521 356.27 400.355 442.638 391.021 373.885 350.805 409.753 471.66 422.848 397.745 377.796 336.523 322.082 336.129 366.846 401.099 422.018 437.247 452.182 475.623 479.734 456.055 436.846 396.269 365.339 332.893 321.922 306.124 289.143 269.341 245.931 225.804 226.19 218.287 241.089 287.519 308.88 329.484 339.206 356.068 396.555 426.21 438.68 447.368 432.11 416.919 352.344 266.485 199.157 161.164 111.41 26.8259 0.735376 0.876818 4.63291 11.4936 14.4764 16.6066 19.2948 22.8947 28.8399 49.3774 74.3624 119.445 188.238 229.878 253.994 259.064 279.741 285.742 280.468 294.705 314.728 354.621 377.811 396.653 403.373 413.908 440.402 455.747 474.6 490.525 535.003 578.862 577.726 568.411 574.202 569.099 561.435 532.906 459.519 417.074 432.277 451.498 481.663 489.156 491.384 520.71 481.506 445.778 447.273 448.613 434.479 424.343 425.537 413.196 354.678 318.177 274.713 243.845 209.191 186.632 170.506 150.97 119.58 89.2541 80.0054 90.0613 104.126 145.174 141.819 160.362 203.272 242.897 259.72 253.821 259.225 283.621 315.877 389.314 455.667 493.347 453.444 414.073 386.787 352.933 321.262 297.609 271.156 248.639 238.404 224.179 195.664 169.169 102.67 55.8698 38.6995 21.4112 3.44203 0.716949 0.458799 0.274075 0.28325 0.240681 0.404402 0.411062 0.433492 0.394439 0.530891 4.32322 17.6446 41.9979 62.0288 82.9914 103.368 132.306 156.057 263.878 394.461 476.063 596.412 703.465 775.009 822.352 860.537 713.678 562.021 506.601 498.854 479.263 453.195 429.506 429.18 407.173 381.306 388.245 403.14 412.67 409.775 405.392 401.9 394.997 395.225 417.313 462.795 473.755 455.51 445.499 451.145 450.883 447.085 463.155 523.984 576.463 442.257 314.411 263.871 171.377 129.856 112.09 97.5186 95.022 93.0452 82.8714 77.2016 77.8551 107.975 152.75 136.719 180.735 193.017 167.526 170.182 167.93 159.1 161.659 189.146 260.198 335.589 271.471 217.259 239.951 325.464 289.651 216.622 188.426 183.454 213.953 272.043 260.839 273.351 232.431 224.855 276.882 317.791 350.824 395.525 335.58 331.858 237.761 224.959 232.118 170.606 111.08 108.586 114.622 117.5 85.7205 77.6857 61.2713 35.3383 17.1349 12.7246 9.32789 7.38743 6.78241 6.97261 7.05553 9.16361 10.2258 10.7235 12.0212 15.363 24.6587 41.0795 63.0594 78.176 81.8573 87.1832 94.7019 103.269 121.432 144.362 203.818 323.576 374.21 315.196 300.461 338.556 398.716 432.819 524.704 442.861 349.963 318.584 316.416 277.649 235.188 198.146 143.94 102.705 81.4962 85.5245 120.009 70.7948 60.0191 55.8776 56.0906 66.9967 111.249
112.758 114.071 116.747 108.192 91.7166 84.3941 78.8508 79.6603 84.5138 102.477 188.75 210.436 163.442 138.397 120.122 109.779 107.537 99.5186 105.219 118.617 135.497 153.699 167.675 181.464 205.865 222.982 255.478 270.395 278.09 295.969 318.272 349.265 373.533 349.163 255.697 186.453 134.603 107.9 97.4586 110.864 121.122 122.605 125.207 117.973 95.7133 100.998 95.5395 106.644 132.707 148.257 166.617 175.551 167.135 180.246 183.871 193.401 199.458 205.441 232.377 253.701 217.262 194.208 197.506 194.778 200.294 227.66 259.381 313.674 372.324 434.456 423.711 387.853 362.284 404.362 409.154 359.5 307.497 279.817 279.466 279.72 300.215 333.573 379.801 431.575 475.511 514.98 529.058 518.429 496.554 449.899 405.852 365.059 347.364 341.165 317.103 307.011 283.576 265.492 250.933 259.759 245.206 251.996 293.318 298.131 312.391 322.95 333.749 364.986 393.133 436.568 446.489 425.056 411.915 368.415 263.583 178.974 133.219 97.4842 17.866 0.621187 1.32387 7.38746 13.8686 16.4827 19.2781 23.1571 27.7349 33.1297 43.6706 61.9893 100.073 165.797 192.859 197.649 193.461 209.096 215.925 234.961 266.625 298.609 330.521 352.858 382.526 407.028 426.6 456.042 478.843 492.024 515.806 526.175 552.736 537.737 533.897 538.966 536.484 527.205 514.779 459.878 433.331 442.552 474.891 515.071 522.707 529.74 530.67 483.206 461.254 480.728 482.479 473.446 466.309 446.308 400.675 356.042 321.415 290.219 264.044 235.614 214.278 174.381 142.694 119.786 100.112 92.3955 109.483 125.101 162.121 187.058 187.34 196.651 233.019 281.975 290.747 281.188 295.095 316.784 383.141 450.182 490.856 461.768 412.464 392.967 357.523 324.784 303.221 275.577 254.269 254.851 252.705 207.146 173.307 132.699 78.3816 60.2389 42.058 12.1471 1.60256 0.75462 0.411797 0.156908 0.230423 0.434552 0.394635 0.363 0.341376 0.308898 0.344025 2.35667 21.3636 41.0817 60.1734 77.2878 93.0504 138.239 243.205 373.732 496.679 558.576 563.663 679.334 770.383 775.865 614.436 477.216 459.613 452.566 437.4 412.957 397.446 388.922 392.302 388.247 407.231 414.81 415.622 412.782 406.427 401.842 409.227 425.449 453.385 471.787 469.621 463.379 481.211 525.653 548.172 561.977 567.397 609.093 626.097 473.576 344.356 246.136 171.768 139.629 125.5 114.492 100.124 93.806 88.8634 87.7677 87.3149 134.719 153.735 152.571 177.499 151.47 147.956 140.338 139.55 141.097 151.972 190.432 280.879 381.419 372.006 325.973 301.556 386.344 325.504 245.437 201.368 199.871 239.878 324.749 325.668 299.113 246.645 235.152 310.098 349.953 326.503 283.945 231.994 247.094 170.52 164.688 173.342 145.04 90.6974 86.2454 85.1616 82.5815 55.2893 50.1164 37.7616 21.9015 14.7162 12.0331 9.45558 7.97308 7.19869 7.42979 7.83545 7.92277 9.22405 9.09838 10.5566 13.0703 18.9817 33.8709 59.2705 79.1175 87.1859 92.1743 94.7109 97.0495 111.179 129.659 172.701 286.494 379.838 411.957 322.617 325.933 343.694 363.934 460.304 457.58 360.073 326.133 343.042 312.01 255.721 183.497 101.502 63.5723 53.8484 55.8407 92.5163 56.9978 52.1677 50.6076 51.5128 55.6406 87.1847
112.209 115.159 123.638 110.078 92.2707 83.8792 77.9861 79.0265 88.0237 124.297 196.761 172.946 137.697 121.067 108.073 110.063 123.381 125.644 139.718 149.483 166.453 179.73 197.593 221.077 242.35 274.027 265.145 250.635 251.486 256.701 259.026 283.938 331.099 371.175 337.394 234.882 162.62 124.545 100.197 102.063 113.987 114.087 118.888 121.199 92.9992 90.347 87.2839 102.195 126.439 144.576 155.411 159.824 158.798 169.048 179.517 186.067 190.052 195.597 219.749 220.028 183.126 170.214 170.708 170.799 165.342 185.038 209.262 267.152 354.479 423.905 441.215 389.174 328.806 323.255 339.533 324.463 279.904 277.708 259.952 260.447 286.408 319.727 376.253 428.347 488.162 518.686 520.035 519.115 484.285 443.967 393.751 362.393 344.79 333.519 321.388 313.99 288.432 290.108 277.445 272.812 274.604 260.742 293.829 298.587 299.774 311.853 322.642 340.136 361.709 415.886 437.299 418.362 405.602 368.562 265.256 174.748 122.254 81.2428 16.8127 0.610122 2.57503 11.515 15.8463 18.079 21.6874 25.8116 30.608 38.4675 45.1367 54.4771 82.5415 113.472 131.402 135.271 148.612 176.873 204.77 241.933 283.84 322.893 350.947 384.799 407.464 426.028 450.143 479.183 503.439 522.972 543.575 514.534 515.945 518.277 509.513 514.497 514.252 504.475 487.492 471.093 476.027 514.521 526.55 546.097 551.161 569.354 537.592 497.022 497.842 514.734 510.366 515.868 503.999 442.286 393.229 361.501 332.517 300.816 259.388 237.165 210.386 176.225 144.68 127.343 108.021 104.897 123.258 142.227 163.445 202.615 231.984 235.994 236.597 269.163 322.268 320.051 323.218 341.276 373.108 443.2 472.666 431.975 389.924 383.05 357.471 322.799 301.176 278.467 261.996 261.742 263.987 227.137 189.895 153.183 117.507 85.2411 56.8974 26.1677 5.19738 1.74487 0.890626 0.393079 0.302448 0.397296 0.3708 0.348393 0.327597 0.310816 0.28607 0.278008 7.42284 24.2837 38.6355 51.3055 63.7082 99.8862 196.89 323.72 406.92 464.761 541.368 623.331 644.977 647.807 533.63 430.342 411.712 400.84 386.353 375.758 362.981 366.137 372.831 383.253 403.977 413.407 406.14 410.451 401.271 399.373 418.752 436.664 453.348 464.181 473.326 492.174 551.114 587.868 586.786 590.033 623.449 689.793 724.185 557.383 393.321 250.553 208.094 185.501 159.806 137.854 114.694 113.179 111.17 97.9197 91.6428 114.659 139.076 169.398 164.45 163.72 156.727 136.909 119.971 131.986 147.765 203.143 313.581 391.384 385.511 371.148 365.564 388.662 373.647 289.702 223.996 221.349 264.627 354.096 372.021 328.279 281.906 264.394 352.568 314.044 238.089 180.599 147.219 139.138 110.705 108.697 113.581 115.274 70.9654 66.0876 66.3912 58.9507 35.6392 29.8093 23.6134 17.9771 13.9928 12.0206 10.2696 8.86173 7.96011 7.64321 8.45649 8.3129 7.84621 8.98364 11.4065 15.8839 18.128 26.8611 52.2419 75.965 90.3618 103.672 106.306 107.858 115.952 140.848 158.743 219.085 357.433 469.581 432.142 344.874 334.038 342.79 388.833 453.503 387.172 361.509 381.925 313.473 214.211 141.72 74.9562 52.5483 45.4493 41.2617 50.7964 45.8881 44.3465 46.1766 48.9743 53.125 68.6877
134.949 146.565 146.605 119.99 101.225 87.779 79.2969 85.9831 104.457 155.132 178.028 156.193 125.725 112.096 112.232 137.819 155.545 164.665 170.433 180.023 193.969 210.885 242.424 266.603 299.108 285.381 240.712 215.778 210.584 214.316 203.774 206.589 252.032 317.483 356.992 289.992 201.599 141.046 117.012 98.0438 108.373 112.044 114.671 104.646 85.3639 75.0867 88.4035 84.7656 111.509 129.958 132.371 141.181 154.878 161.035 167.314 169.861 173.094 175.239 196.253 190.031 163.141 156.012 148.198 154.097 160.65 166.471 198.748 251.166 342.44 406.828 389.03 320.284 261.252 243.988 261.634 305.04 289.889 265.798 254.883 260.348 283.082 325.931 380.208 433.247 475.726 496.138 484.308 482.175 469.1 417.045 375.415 348.76 326.522 322.343 313.106 307.377 305.184 288.259 288.61 285.6 289.447 274.205 288.559 288.745 290.024 299.453 314.156 323.357 343.036 392.854 431.631 414.75 388.954 355.538 260.419 166.525 114.591 75.1873 11.7514 0.517497 5.37856 15.0334 16.1647 17.4789 21.8725 24.6258 30.3572 40.0362 45.9715 53.3309 72.663 91.4564 112.216 137.072 168.599 214.79 257.793 295.965 345.986 379.48 417.975 433.776 450.197 469.398 491.541 515.331 524.862 528.625 506.825 481.767 493.902 486.406 470.078 479.563 480.763 471.605 454.802 445.855 445.676 512.748 554.947 571.555 573.083 590.161 559.59 522.802 546.234 547.136 534.508 536.673 493.358 429.881 395.794 374.784 359.643 339.506 297.396 247.2 212.985 178.819 155.76 137.752 117.366 123.995 144.087 166.024 207.151 244.897 270.515 289.088 296.78 304.248 330.29 350.095 342.955 361.234 375.199 420.02 409.346 373.714 366.364 352.68 327.122 310.281 295.72 277.634 254.323 249.354 252.671 236.269 203.869 169.072 136.822 99.7216 68.5145 49.9243 29.9577 10.1485 4.38282 1.02615 0.353224 0.357839 0.349888 0.33102 0.313346 0.294965 0.283513 0.407358 5.5892 14.296 22.3379 31.1168 41.9124 72.3233 157.488 262.352 299.18 397.004 467.314 495.165 488.31 507.514 429.561 397.359 373.297 356.159 332.438 318.449 303.539 328.08 352.645 377.612 392.844 390.836 386.362 387.058 383.253 411.688 470.764 491.287 504.576 530.918 556.13 566.639 581.13 571.691 539.558 586.023 706.999 780.318 791.715 623.06 397.343 281.91 244.859 223.329 202.377 177.667 167.979 160.162 140.836 116.235 112.844 117.215 125.302 147.227 157.919 169.645 169.892 163.663 134.248 127.982 147.333 206.007 299.344 294.532 275.559 278.806 296.988 323.52 337.959 334.156 274.325 269.298 319.751 397.851 406.652 354.369 323.115 350.766 395.848 284.677 188.429 120.618 91.4379 77.9971 69.6887 71.0752 72.3511 74.1788 54.2358 49.6002 48.9961 42.9558 29.7261 21.6418 18.9967 16.4928 13.7504 12.4233 10.7235 9.22211 8.4175 8.42643 8.77858 8.77277 8.75621 12.0927 16.333 19.1548 19.0096 22.9924 96.459 106.444 97.5281 115.158 117.107 120.59 129.999 150.437 162.082 193.307 297.235 378.07 467.731 479.582 407.575 358.389 369.418 433.75 452.83 411.624 393.044 310.713 216.904 139.043 76.5982 52.5732 43.9222 38.1686 38.6578 42.169 44.4845 45.9714 48.2746 53.912 63.1388
195.457 201.734 178.265 142.754 124.832 113.314 100.899 107.027 132.644 173.473 161.812 151.875 133.117 125.401 139.179 173.64 202.462 212.237 205.966 227.238 248.344 280.701 312.557 349.505 343.987 291.437 240.132 204.433 189.052 184.605 173.235 154.029 153.442 177.864 210.702 258.045 258.634 181.759 134.756 102.575 93.7782 106.432 105.793 99.2866 78.652 68.3011 65.9882 68.5604 89.8432 110.408 117.084 125.139 141.597 149.571 147.394 149.358 158.59 158.065 171.685 161.375 142.594 137.753 141.359 158.446 160.891 155.172 193.662 272.06 361.22 363.612 337.459 271.754 229.317 211.336 231.768 300.857 276.499 254.485 253.072 259.854 281.871 325.61 387.326 438.615 473.501 476.671 450.672 438.182 433.226 386.449 351.769 312.102 311.786 310.603 301.66 313.952 300.372 295.695 298.588 295.54 301.63 292.094 272.023 273.702 273.859 290.71 303.755 314.144 335.837 385.795 425.648 412.259 370.753 338.659 244.69 157.047 103.309 66.3872 9.71926 0.38393 5.96981 15.634 15.6943 17.6164 20.3256 22.5204 28.159 34.9381 43.003 67.932 92.4944 118.385 161.39 188.278 215.373 246.743 294.059 341.64 374.958 397.521 423.864 443.763 466.058 494.382 498.54 506.121 491.178 472.409 453.38 456.635 472.381 446.028 448.025 436.78 440.903 437.491 428.955 424.97 418.43 430.664 509.633 572.938 603.898 606.334 600.547 578.846 574.285 577.916 561.753 524.725 485.331 424.347 395.964 384.179 378.488 376.165 329.334 261.26 229.089 200.08 167.589 140.888 125.184 153.815 180.409 200.403 242.376 271.095 297.097 330.692 366.778 397.357 379.542 369.66 361.329 379.617 369.999 353.363 354.292 341.746 337.576 325.301 306.185 304.377 294.748 272.311 242.736 233.361 227.299 217.364 190.781 157.785 129.444 113.301 94.9786 79.6529 61.1804 38.0499 32.5809 13.3893 2.19327 0.486651 0.333187 0.310806 0.291797 0.28325 0.266782 0.349783 3.33733 9.61156 15.2141 20.6963 37.9782 61.4845 115.504 179.762 273.97 312.448 288.521 344.516 431.142 467.58 376.411 349.196 328.259 289.776 260.167 248.34 262.97 291.477 316.342 349.744 377.547 382.477 368.576 359.19 370.282 408.141 480.874 524.892 546.734 567.081 557.696 550.575 535.967 519.291 514.215 627.907 737.247 834.014 827.389 629.299 398.876 305.829 274.034 248.435 238.769 216.056 211.102 201.705 176.288 160.77 153.162 136.462 128.573 135.774 153.32 165.823 178.571 171.508 162.733 135.587 182.542 252.795 256.428 248.132 245.53 251.791 263.816 276.545 303.069 360.79 371.56 359.624 394.305 441.769 420.241 374.278 375.582 424.639 432.13 310.598 178.423 88.4776 65.2592 54.6513 55.8296 55.8675 54.6567 48.8247 40.5117 36.6495 32.5748 29.8276 23.8128 18.5498 16.7172 15.4249 14.2487 13.0056 11.5452 10.1735 9.60784 10.3602 11.4629 10.5884 11.1587 15.9058 21.3431 22.7565 21.2672 21.4459 145.41 194.653 115.534 121.897 125.175 130.154 142.198 155.716 167.531 185.276 250.24 331.954 434.854 547.717 507.49 396.574 393.092 421.129 513.885 453.311 391.361 314.823 224.53 142.654 77.3772 51.3609 41.722 37.6084 37.9467 41.972 47.3356 48.7885 51.3008 56.9573 72.7996
225.355 240.583 225.678 186.156 154.908 144.747 137.665 142.279 174.943 197.482 177.373 174.115 152.218 160.852 176.535 209.463 233.687 243.455 292.812 349.744 376.087 399.819 418.411 416.25 366.548 317.164 268.679 222.724 195.092 187.715 175.549 142.334 123.721 122.685 140.261 166.538 209.342 216.926 158.483 108.519 84.6722 93.6983 98.7078 95.5187 92.9236 65.8527 59.4408 63.5214 67.2253 91.7971 111.214 113.215 132.059 142.769 135.754 141.111 142.892 142.186 144.083 143.518 141.785 139.672 145.315 152.502 154.177 162.424 207.169 295.579 353.157 312.685 322.766 269.009 208.922 183.539 217.877 271.223 268.006 241.611 243.935 262.928 270.905 317.756 388.435 437.612 464.698 473.08 442.906 401.531 398.069 362.284 324.693 283.82 293.562 295.95 305.656 299.212 307.312 302.826 306.855 306.228 307.377 286.222 262.448 260.46 256.646 284.1 295.441 308.949 326.215 370.672 397.91 392.607 361.769 338.277 257.676 158.744 86.4922 50.3112 8.25716 0.396364 6.76338 12.2954 13.1641 15.7372 17.541 19.7948 25.0704 30.8676 45.3468 81.0751 125.533 160.311 198.622 222.286 252.993 279.853 307.01 338.279 358.42 372.551 395.749 430.06 450.732 471.751 462.271 462.379 445.265 428.752 425.507 421.981 406.713 395.624 402.562 415.055 419.537 403.644 397.927 396.545 390.344 389.714 434.449 531.79 595.952 629.113 630.428 633.279 623.638 596.598 565.1 515.173 477.105 437.376 415.408 412.516 417.763 388.258 327.773 267.858 239.094 206.854 179.04 145.261 135.701 157.313 193.297 217.328 247.073 280.145 294.614 314.346 353.305 400.724 438.791 419.74 396.245 400.622 327.683 279.001 329.025 329.181 312.699 300.811 297.931 298.676 290.377 265.595 239.548 222.383 209.99 182.16 155.298 136.493 134.39 139.684 112.199 102.019 83.499 68.4019 67.4153 49.987 24.9455 4.80601 0.659983 0.476666 0.345165 0.267882 0.237021 0.162486 1.15045 4.19524 7.15573 9.21826 17.5616 43.9238 57.4934 125.415 205.35 203.449 254.068 337.196 392.443 369.245 321.506 299.842 252.313 213.488 204.653 210.047 230.896 251.516 267.834 305.07 344.655 360.387 361.338 354.621 378.281 392.189 407.633 444.852 481.211 515.33 532.706 540.988 543.801 558.633 598.194 693.029 786.454 914.091 867.856 646.742 421.228 334.182 302.546 278.89 268.006 238.904 233.698 230.12 209.245 197.4 188.329 163.679 148.656 140.529 148.654 163.558 175.367 174.254 167.352 190.396 245.492 228.654 223.369 236.898 238.504 249.487 256.169 269.178 294.818 352.372 420.308 430.784 427.717 445.03 427.121 418.546 426.623 467.504 464.533 332.737 172.758 71.0453 51.9296 45.4722 44.7889 44.1638 41.7065 37.37 33.2347 28.0481 24.7488 23.0636 18.8999 16.7977 15.5614 14.8043 14.0736 13.4477 13.0526 11.7827 11.2329 11.672 13.3993 14.3319 17.1714 24.1546 24.7648 25.4676 25.5216 27.0004 116.314 227.455 183.554 143.995 133.624 135.638 151.341 159.855 168.482 182.818 214.641 282.788 387.34 513.413 529.586 502.709 454.269 465.942 537.83 458.392 390.442 314.717 222.172 136.679 72.5278 48.1652 38.127 36.8472 37.1388 41.8707 48.6383 52.1695 55.3552 63.1562 88.0999
